# .PCD v0.7 - Point Cloud Data file format
VERSION 0.7
FIELDS x y z
SIZE 4 4 4
TYPE F F F
COUNT 1 1 1
WIDTH 1515
HEIGHT 1
VIEWPOINT 0 0 0 1 0 0 0
POINTS 1515
DATA ascii
-31.707079 -20.50243 -5.3791752
-20.105463 -20.26255 -5.0335255
-19.507647 -20.45717 -5.3242865
-18.720079 -20.415928 -5.824574
22.526339 -20.456209 -5.5052867
41.90831 -20.706314 -5.1799669
42.240631 -20.450361 -5.6246295
-32.434837 -19.460443 -5.4928241
-20.086227 -19.843508 -5.102716
-19.420008 -19.538773 -5.5919261
-18.968494 -19.735678 -5.8873649
22.816319 -19.695868 -5.5893784
23.29104 -19.221497 -5.4299941
42.430862 -19.48991 -5.4102464
-32.773403 -18.583391 -5.4963679
-19.412287 -18.558697 -5.4673142
-18.850178 -18.027971 -5.9575543
23.776707 -18.569553 -5.4825883
42.516254 -18.614046 -5.4972363
-33.130562 -17.472637 -5.4332943
-32.95026 -17.683317 -5.883122
-19.252337 -17.588688 -5.3423853
-18.803934 -17.369785 -5.8143172
23.919483 -17.68671 -5.9159484
24.442753 -17.347589 -5.4512944
42.574997 -17.430412 -5.5901399
-33.413273 -16.519566 -5.4502163
-19.227959 -16.871681 -5.0242019
-18.585886 -16.377548 -5.5707841
24.789566 -16.886158 -5.6466722
25.414255 -16.337091 -5.4912848
42.625561 -16.467232 -5.4162602
-33.500713 -15.586222 -5.5200171
-18.351091 -15.613466 -5.4568477
-17.932011 -15.26683 -5.9299569
25.7314 -15.627471 -5.3645644
42.401005 -15.434932 -5.5889955
-33.509861 -14.468471 -5.5048509
-18.113701 -14.593237 -5.172842
-17.754156 -14.355038 -5.5983629
25.467043 -14.567194 -5.4491687
41.857067 -14.239495 -5.5425496
42.118069 -14.809454 -5.5033655
-33.406101 -13.474046 -5.506124
-17.362526 -13.430867 -5.5428791
24.969395 -13.133928 -5.9642572
25.293114 -13.46661 -5.47615
41.782955 -13.625203 -5.4665599
-33.181847 -12.430121 -5.4993839
-17.186316 -12.686307 -5.2594328
-16.789461 -12.259664 -5.5825119
24.856981 -12.555758 -5.7335749
25.139742 -12.631733 -5.2710996
41.888332 -12.50794 -5.5351067
-33.122269 -11.588834 -5.6384768
-17.057949 -11.838928 -5.0255241
-16.559122 -11.403111 -5.4521432
24.55863 -11.500535 -5.4303131
41.799641 -11.438267 -5.6733327
-33.235401 -10.380302 -5.4357948
-16.247728 -10.511835 -5.3828297
-15.807983 -10.190849 -5.7741289
23.697599 -10.460219 -5.6294694
24.160904 -10.736876 -5.2668438
41.730679 -10.507447 -5.4756703
-33.628876 -9.627574 -5.5108929
-16.140457 -9.8243532 -5.1430779
-15.607641 -9.4657888 -5.6070242
22.856085 -9.2643175 -5.6601062
23.32243 -9.5768604 -5.3210349
41.561752 -9.5053511 -5.4838114
-34.151508 -8.3745985 -5.4826603
-33.957176 -8.8435211 -5.5483904
-15.284442 -8.6022978 -5.4209552
-14.917572 -8.1119375 -5.6480598
21.812639 -8.2499437 -5.7323833
22.268805 -8.6567364 -5.4334364
41.330547 -8.4795027 -5.4940953
-34.723042 -7.3535199 -5.4355025
-15.042164 -7.8308024 -5.1696749
-14.673494 -7.4848623 -5.5134702
20.858425 -7.1857853 -5.8602147
21.456314 -7.5366879 -5.4614434
41.118366 -7.5695 -5.5357466
-35.046734 -6.0718818 -5.6384778
-34.948891 -6.7034073 -5.4146333
-14.23126 -6.5961075 -5.4105334
-13.87959 -6.3923512 -5.8640609
19.815418 -6.128089 -5.909029
20.457829 -6.4960313 -5.437397
40.867374 -6.4537554 -5.4010615
41.006741 -6.9949908 -5.1352491
-35.055035 -5.5874071 -5.744935
-34.984356 -5.1933217 -5.3503366
-13.492078 -5.4149203 -5.4937015
18.900404 -5.0789533 -5.6727128
19.657402 -5.627944 -5.3114753
20.07863 -5.9177389 -5.1616259
40.668438 -5.5849118 -5.5192261
-34.863884 -4.4379854 -5.5877304
-13.134759 -4.8214097 -5.4895597
-12.817775 -4.4074163 -5.5245357
17.850752 -4.0537415 -5.9360847
18.464649 -4.4390078 -5.5164413
19.091858 -4.9413242 -5.1677957
40.758022 -4.5891824 -5.5260301
-35.05069 -3.3267238 -5.6033449
-34.9105 -3.7483578 -5.3880644
-12.304818 -3.61081 -5.425118
-11.988746 -3.0708108 -5.5162315
16.904341 -3.0282388 -5.9940701
17.600891 -3.5640569 -5.615149
18.148712 -3.7953067 -5.1665354
40.949993 -3.5525138 -5.5008206
41.001694 -3.2544589 -5.6313577
-35.083443 -2.5011315 -5.6559191
-34.928711 -2.3523467 -5.1359277
-11.681876 -2.5980122 -5.3951325
16.664181 -2.4005675 -5.5723939
17.168396 -2.7506497 -5.2927604
40.825653 -2.4401197 -5.3859425
-35.000999 -1.5739968 -5.7700548
-34.858109 -1.5407288 -5.3457956
-11.10578 -1.7210053 -5.6855035
-10.837738 -1.2411542 -5.4858966
15.912782 -1.2871119 -5.4668231
16.187256 -1.638219 -5.4178038
40.746315 -1.6320198 -5.4379587
-34.546726 -0.45226172 -5.5021729
-10.439702 -0.60738349 -5.4421067
-9.9692421 -0.00089025806 -5.8304582
14.762222 -0.094063498 -5.8517833
15.311406 -0.54574704 -5.526711
40.759331 -0.47100502 -5.628953
-34.16787 0.35986131 -5.4673319
-33.92614 0.60770506 -5.0861273
-10.055717 0.032081209 -5.2452049
-9.6795168 0.60752088 -5.6244473
13.954184 0.8767696 -5.9854817
14.599689 0.48877084 -5.5445285
15.199272 0.1132066 -5.1195083
40.518784 0.55817854 -5.5023532
-34.128761 1.4100997 -5.7602911
-33.873524 1.4160452 -5.1718287
-9.2288313 1.4804052 -5.4814816
-8.8557043 1.751071 -5.869523
13.711658 1.5100319 -5.7298522
14.239649 1.4472201 -5.1810188
39.960468 1.9493369 -5.4408417
40.169228 1.5996822 -5.7103987
-33.692398 2.4752309 -5.4114847
-8.5753698 2.5065084 -5.4744306
12.848941 2.8603525 -5.668416
13.37208 2.4331896 -5.4105921
39.714272 2.4464307 -5.4741817
-33.394112 3.5755808 -5.5964689
-8.1330843 3.3305864 -5.4007578
-7.5849609 3.7814233 -5.5870728
-6.5297737 3.9146967 -5.8570967
-5.7273307 3.9868701 -5.8633399
11.973242 3.852819 -5.8748198
12.482519 3.5547798 -5.4523802
13.148084 3.1824768 -5.0775924
39.447777 3.4952331 -5.3333941
-33.166309 4.1939335 -5.7396488
-32.675129 4.6372256 -5.3276324
-7.2131305 4.145577 -5.2288098
-6.5070367 4.2027359 -5.2642803
-5.4845791 4.2975569 -5.4727569
-4.6456661 4.7043099 -5.4627976
-3.6985798 4.9421678 -5.8608494
10.613944 4.9359713 -5.79672
11.575407 4.5667534 -5.4442315
12.139336 4.104527 -5.4113703
39.194271 4.552228 -5.5582733
-32.308662 5.4979568 -5.309792
-4.1472912 5.1511316 -5.2244778
-3.5345531 5.353683 -5.4227896
-2.5497093 5.6508117 -5.5898728
-1.5328052 5.8972225 -5.7548385
-0.24724826 5.9795284 -5.5354991
0.50066382 5.7203832 -5.3257241
1.4794513 5.3381062 -5.4499054
2.3475518 5.2720642 -5.5587287
3.4779572 5.4803696 -5.4932089
4.2157526 5.7955709 -5.3658104
8.8674688 5.8591914 -5.9892998
9.6526842 5.6772861 -5.6994481
10.384596 5.3696866 -5.4416604
38.472668 5.56318 -5.5406857
-32.244915 6.3986406 -5.6836395
-31.800251 6.7410688 -5.2442217
-2.3166652 6.04813 -5.1021585
-1.3902202 6.1492362 -5.3331938
-0.53512174 6.1065321 -5.4029713
4.8096495 6.1469073 -5.6062322
5.5774589 6.4788246 -5.5676637
6.4408941 6.6548319 -5.4477282
7.4869061 6.4721284 -5.5651736
8.5736628 6.2535901 -5.499444
9.3692894 6.1173825 -5.3102775
37.728294 6.5256529 -5.4184527
38.06522 6.0521388 -5.6684799
-31.572655 7.4885616 -5.61974
-30.951654 7.920507 -5.1965933
36.908199 7.8969898 -5.0644736
37.310383 7.4781618 -5.4786768
-31.150593 8.2649441 -5.6888194
-30.727821 8.6254902 -5.4895554
36.524632 8.6257648 -5.4582109
37.04002 8.1042309 -5.8415494
-30.255985 9.3786478 -5.7765293
-29.581503 9.6418905 -5.4201684
34.896275 9.9991684 -5.0997186
35.549026 9.6565905 -5.4543304
36.206291 9.1511679 -5.6897931
-29.197172 10.384245 -5.5990539
-28.846375 10.702984 -5.2715526
33.98925 10.812949 -5.2150006
34.430538 10.561742 -5.4849439
35.291168 10.013025 -5.800004
-28.464254 11.484161 -5.5262308
-27.995548 11.937833 -5.3121886
32.820076 11.889502 -5.1831794
33.604534 11.485466 -5.4573655
34.134323 11.216735 -5.8292618
-28.053688 12.077781 -5.6758113
-27.571489 12.505507 -5.4337478
30.996469 12.747529 -5.0100994
31.637312 12.676214 -5.3628993
32.416313 12.391274 -5.5132351
33.105133 12.190225 -5.8522959
-27.152838 13.146991 -5.7119808
-26.494574 13.539907 -5.5209193
-25.634781 13.796557 -5.1607594
29.70862 13.606472 -5.5056367
30.354677 13.276566 -5.5784593
31.34621 13.11175 -5.8127789
-25.443336 14.388489 -5.6374364
-24.797998 14.719413 -5.151895
26.884268 14.930804 -5.0326924
27.577517 14.853509 -5.2825346
28.442251 14.649401 -5.4051228
29.207907 14.207396 -5.5385962
-24.44655 15.504479 -5.5730209
-23.489674 15.702744 -5.1860304
-22.535427 15.883437 -5.1652369
-21.992714 15.830959 -5.1033039
25.593288 15.806321 -5.3337379
26.472008 15.485729 -5.4887719
27.395147 15.098454 -5.8367481
-24.01281 16.012243 -5.8647442
-23.341063 16.232258 -5.824111
-22.573589 16.298056 -5.6716595
-21.621916 16.395521 -5.5914326
-20.847937 16.431999 -5.1526275
23.761776 16.724825 -5.3292856
24.373484 16.286175 -5.5527406
25.256319 16.056561 -5.666337
-21.167696 17.441414 -5.7810993
-20.692537 17.404448 -5.3267279
23.63196 17.30298 -5.4457726
-21.021519 18.106619 -5.9795961
-20.533915 18.445318 -5.4592638
-19.843386 18.946224 -5.0043378
22.977371 18.952435 -5.1812449
23.368511 18.45661 -5.4976292
-20.28665 19.29842 -5.7783899
-19.643505 19.582253 -5.3630819
22.792164 19.554016 -5.3746858
23.112532 19.207554 -5.6023164
-19.266474 20.479994 -5.6210909
-18.841469 20.7145 -5.2695665
21.55592 20.929749 -5.0086107
22.385702 20.414003 -5.5677514
-19.086039 21.155418 -5.9023209
-18.507736 21.580257 -5.5457149
20.438541 21.862638 -5.0513921
21.558105 21.471956 -5.5270367
22.137571 21.060915 -5.8830719
-18.178434 22.18759 -5.8276
-17.46307 22.579456 -5.5820055
-16.680447 22.743221 -5.2003527
18.852463 22.773397 -5.123219
19.533886 22.682779 -5.5272608
20.389963 22.248495 -5.4818821
21.228176 22.109949 -5.848053
-17.036009 23.119978 -5.9804153
-16.424698 23.312006 -5.6254859
-15.878185 23.630051 -5.3153195
18.679052 23.515047 -5.4237318
19.238506 23.266745 -5.8690786
-16.097561 24.136703 -5.9928432
-15.636762 24.471144 -5.6402974
17.928297 24.789953 -5.0741558
18.383671 24.60186 -5.6175675
-15.261544 25.360653 -5.6498547
-14.85898 25.545774 -5.1326499
17.805294 25.552284 -5.3867755
18.142881 25.330414 -5.8062339
-15.264355 26.346907 -5.88978
-14.86867 26.407719 -5.2478485
17.553961 26.415356 -5.5054202
-15.176737 27.440022 -5.7995253
-14.946152 27.451897 -5.3648009
17.306211 27.483009 -5.5285974
-15.246289 28.479553 -5.6907334
-14.892688 28.225485 -5.1813159
16.963882 28.682177 -5.0428567
17.206722 28.431686 -5.5294366
-15.60208 29.452295 -5.4071116
16.965633 29.119059 -5.0366006
17.227062 29.434891 -5.4857092
-16.068867 30.68841 -5.7553363
-15.907269 30.4699 -5.3666286
17.626129 30.336554 -5.4553194
18.136831 30.821642 -5.4663248
-16.149879 31.496441 -5.4097724
-15.957469 31.040436 -5.1573124
18.562273 31.473478 -5.535511
-16.468582 32.457951 -5.4563422
18.800001 32.330822 -5.404705
19.291946 32.712543 -5.7024994
-18.216032 33.883141 -5.6729598
-17.411037 33.740238 -5.6653461
-16.722181 33.487034 -5.440968
19.75161 33.537945 -5.4932575
-18.647261 34.379501 -5.5074658
-17.285696 34.09182 -5.0403728
19.827366 34.420357 -5.5818977
-18.699368 35.422806 -5.4964428
19.961155 35.019268 -5.5478687
20.506897 35.597286 -5.3825779
-19.241173 36.749916 -5.6770253
-18.881227 36.321346 -5.6149597
21.501339 36.513008 -5.5371442
-20.182213 37.707493 -5.5660329
-19.701389 37.227085 -5.5499763
21.937346 37.003475 -5.2807183
22.232418 37.310345 -5.3693962
-20.667847 38.478245 -5.5588164
22.935354 38.162922 -5.3005219
23.215473 38.56348 -5.4710107
-21.212994 39.57835 -5.365417
-20.951996 39.065681 -5.376955
23.764771 39.405285 -5.5157866
24.08802 39.921272 -5.2559681
-21.719652 40.55455 -5.4631824
24.526421 40.589451 -5.554553
-23.015043 41.961075 -5.6650057
-22.422873 41.501896 -5.5982194
-21.952646 41.010197 -5.8070326
24.889915 41.352493 -5.4318924
25.07354 41.889317 -5.5545897
-23.447771 42.394951 -5.5154138
25.354273 42.52544 -5.4245872
-25.04015 43.995941 -5.4290643
-24.60685 43.582157 -5.53196
25.94582 43.437721 -5.1598601
26.309513 43.708385 -5.4945121
-33.225975 44.96603 -5.4315386
-32.494194 44.74435 -5.5909076
-31.530853 44.555515 -5.6494679
-30.625212 44.598099 -5.7168345
-29.511887 44.748779 -5.3652043
-28.474796 44.882988 -5.5247312
-27.521898 44.854012 -5.459938
-26.5611 44.704403 -5.4818954
-25.595827 44.342358 -5.4804606
26.696854 44.12603 -5.552732
27.231709 44.69141 -5.3820314
-36.14999 45.958477 -5.4983439
-35.52277 45.569321 -5.5056152
-34.537518 45.241188 -5.5317054
-33.786285 45.075619 -5.4051604
27.770084 45.176193 -5.4622626
28.388531 45.67765 -5.4976063
-38.44511 46.929092 -5.1594739
-37.456841 46.675125 -5.2289357
-36.643913 46.376057 -5.5244551
28.859919 46.022255 -5.6539364
29.485268 46.338413 -5.4601212
30.471842 46.7033 -5.5172801
31.369764 46.860813 -5.4172268
32.583996 46.798817 -5.2280045
33.531967 46.790134 -5.3249097
34.445034 46.891136 -5.3304911
35.15448 46.971203 -5.0297141
-39.211681 47.659325 -5.2801275
-38.571358 47.444427 -5.6447554
-37.749165 47.185081 -5.8067288
31.700813 47.087341 -5.78547
32.406719 47.166138 -5.794765
33.655312 47.210213 -5.8792977
34.55394 47.211098 -5.6895609
35.508709 47.502529 -5.5163012
36.280785 47.774185 -5.3922658
37.181801 47.906605 -5.0822086
-40.21212 48.729336 -5.3210101
-39.61393 48.302181 -5.5924764
36.816967 48.086369 -5.7701998
37.625011 48.197029 -5.5210342
38.432644 48.567863 -5.4865942
-42.219738 49.639568 -5.1786723
-41.474129 49.510063 -5.4157815
-40.686008 49.423676 -5.6081066
38.778458 49.178337 -5.8450689
39.197514 49.520214 -5.5084667
-44.222412 50.723709 -5.0208836
-43.534012 50.760342 -5.0861225
-42.457623 50.379654 -5.4514484
-41.581318 50.277248 -5.8323207
-40.919296 50.067581 -5.9325342
39.731613 50.619511 -5.49298
-44.371067 51.753258 -5.1953855
-43.569317 51.487888 -5.2577372
-42.534599 51.455906 -5.7229047
39.92321 51.436821 -5.7366638
40.2146 51.622684 -5.2903609
-45.03841 52.677536 -5.1672201
-44.566578 52.307468 -5.2639399
-43.328342 52.632023 -5.6762486
-42.925156 52.26231 -5.7563038
40.553165 52.597721 -5.4977231
41.146381 52.887714 -5.0262361
-45.147186 53.535686 -5.2321634
-44.346443 53.541161 -5.5569324
-43.521053 53.49448 -5.7693291
40.838806 53.467678 -5.7817726
41.338474 53.576145 -5.3107347
-45.222767 54.420025 -5.1584482
-44.544701 54.574974 -5.4528699
-43.447762 54.472374 -5.7777529
40.922024 54.286835 -5.9974804
41.359558 54.467945 -5.6216044
-45.143429 55.596977 -5.1694708
-44.394775 55.510319 -5.3954678
-43.522861 55.544556 -5.6245627
-42.913937 55.61985 -5.9687338
41.583351 55.552055 -5.5126843
-45.117207 56.32605 -5.134377
-44.421215 56.521095 -5.2891493
-43.373962 56.476864 -5.6301417
-42.926208 56.633781 -5.9491472
40.879177 56.794079 -5.8544154
41.395294 56.532448 -5.455296
-44.538879 57.089619 -5.0909009
-43.390366 57.460609 -5.3045907
-42.588039 57.488689 -5.8336649
40.79784 57.541077 -5.825696
41.34005 57.528019 -5.2862306
-43.272522 58.177162 -5.0448933
-42.493702 58.445076 -5.4372916
-41.472488 58.520779 -5.8235836
40.762108 58.432571 -5.736455
41.261925 58.516628 -5.2078032
-42.290932 59.261669 -5.1709456
-41.440823 59.465622 -5.3506918
-40.788712 59.742069 -5.7486892
40.484463 59.785751 -5.4398828
41.162811 59.270096 -5.051928
-40.421879 60.458698 -5.4420133
-39.811558 60.861198 -5.7789345
39.666767 60.6492 -5.5190921
40.168659 60.304829 -5.2742925
-39.624424 61.181763 -5.4300213
-38.535984 61.692627 -5.6045828
-37.953979 61.876961 -5.727222
38.922882 61.783283 -5.7624235
39.30455 61.457291 -5.3503032
-38.130505 62.101562 -5.269938
-37.386993 62.39695 -5.5433121
-36.8451 62.868702 -5.5439711
38.706184 62.495289 -5.5282512
-36.432739 63.239536 -5.397306
-35.556744 63.773148 -5.4695106
-34.95303 63.956001 -5.9200964
35.612762 63.81826 -5.9478693
36.577751 63.737488 -5.858439
37.656307 63.589176 -5.446909
38.277363 63.332844 -5.1716065
-35.027355 64.056496 -5.0918298
-34.435108 64.148918 -5.5902538
-33.396252 64.554268 -5.2914481
-32.377689 64.901794 -5.5946155
-31.408951 64.948357 -5.5250049
-30.851381 64.954597 -5.5433373
30.82041 64.945496 -5.6042457
31.549974 64.811882 -5.5007887
32.577637 64.64872 -5.5685143
33.466873 64.667809 -5.4610043
34.574448 64.397316 -5.5429039
35.482738 64.296051 -5.3994603
36.439064 64.224915 -5.3171816
37.07682 64.217682 -5.0416994
-30.152813 65.178322 -5.5719485
-29.44499 65.61628 -5.4527407
28.755613 65.709976 -5.4087138
29.463104 65.351807 -5.500483
30.447666 65.111786 -5.3751993
31.032534 65.073059 -5.0205693
-28.421715 66.296013 -5.5274692
-27.555685 66.787872 -5.4247851
28.680611 66.610825 -5.5650315
-27.122776 67.073387 -5.4681401
-26.593458 67.52346 -5.3526316
28.755768 67.374359 -5.3548627
29.172794 67.798012 -5.643641
-26.096598 68.320885 -5.5275397
-25.928448 68.823051 -5.7265654
28.973825 68.295311 -5.0800004
29.365917 68.520935 -5.4835339
-25.606928 69.560417 -5.5170498
28.922523 69.77066 -5.3415813
29.322542 69.336845 -5.5880299
-25.218163 70.174942 -5.5135918
-24.726698 70.768166 -5.2718182
27.836887 70.930069 -5.6550369
28.413788 70.421112 -5.5543327
-24.233362 71.282936 -5.2729278
-23.684093 71.750587 -5.4078894
26.500898 71.947884 -5.8831911
27.403076 71.382103 -5.457243
-23.189951 72.195343 -5.7503352
-22.490311 72.495216 -5.465188
-21.975445 72.940125 -5.0268192
24.981853 72.990677 -5.1345844
25.509939 72.697838 -5.5261612
26.448963 72.197571 -5.3458924
-21.601778 73.44236 -5.6195502
23.578272 73.866554 -5.4468765
24.578495 73.287109 -5.61239
-21.113729 74.158714 -5.4014893
-20.645563 74.617393 -5.4756441
21.650494 74.700577 -5.4694881
22.570856 74.424103 -5.660224
23.243141 74.178093 -5.7020903
-20.094662 75.060753 -5.4927754
-19.416878 75.418129 -5.4134312
-18.647701 75.666504 -5.4525762
20.790749 75.6465 -5.5879369
21.150415 75.124275 -5.7204862
-18.141071 76.299347 -5.6222057
-17.897181 76.639557 -5.3655314
20.68582 76.500725 -5.4948058
-18.047935 77.029114 -5.8959932
-17.617794 77.425461 -5.4505801
19.927805 77.954391 -5.5584321
20.376186 77.398361 -5.5280662
-17.167147 78.218544 -5.699069
-16.737635 78.596069 -5.2313156
18.880136 78.68837 -5.0382924
19.448475 78.436035 -5.5914707
-16.249956 79.44458 -5.5417328
-15.911021 79.861794 -5.3622565
17.84424 79.883888 -5.3173609
18.405607 79.334244 -5.4499426
-15.492036 80.578041 -5.5291505
17.469347 80.58226 -5.5571752
-15.127189 81.074966 -5.8964753
-14.453078 81.377754 -5.4628706
-13.716948 81.76609 -5.1682239
15.917886 81.984001 -5.2886291
16.609818 81.57621 -5.4410439
17.149906 81.180893 -5.6971216
-13.649923 82.458908 -5.4889045
15.42534 82.512886 -5.4356165
-13.358865 83.344109 -5.5075469
-12.881703 83.74482 -5.1337204
14.873254 83.66835 -5.3194218
15.111824 83.350716 -5.5035911
-13.010845 84.068909 -5.9065061
-12.434035 84.506531 -5.4748564
-11.939817 84.879669 -5.1448355
13.971906 84.738991 -5.2370014
14.373877 84.430717 -5.5261602
-11.511422 85.46006 -5.5085692
-10.823904 85.867027 -5.1251397
12.968876 85.796112 -5.1153831
13.438878 85.460213 -5.5308414
-10.538017 86.227402 -5.4952507
-9.507761 86.584465 -5.3889799
-8.6235456 86.794006 -5.4325876
11.836941 86.884865 -5.3394327
12.425807 86.360176 -5.5816512
-8.1243544 87.089981 -5.5324955
-7.5911074 87.583748 -5.4515948
8.94415 87.919189 -5.1322808
9.6303596 87.858452 -5.5782514
10.590258 87.73661 -5.4599948
11.380114 87.365402 -5.551095
-7.0712528 88.402863 -5.9877238
-6.575315 88.293518 -5.4813356
-5.5580859 88.571037 -5.4660029
-4.479661 88.783539 -5.362834
-3.8498313 88.921516 -5.2483959
7.7597113 88.964935 -5.3085232
8.4294825 88.535126 -5.4111719
9.1398191 88.078705 -5.8770614
-4.4835911 89.167786 -5.7851677
-3.4983556 89.27166 -5.5083604
-2.5698023 89.542679 -5.4658585
-1.5518092 89.595276 -5.3688712
-0.34684855 89.52816 -5.5883613
0.52367723 89.478416 -5.5194144
1.5810103 89.695068 -5.4866261
2.4852173 89.769279 -5.4308915
3.5117354 89.73465 -5.3066916
4.5158091 89.795021 -5.372334
5.5108948 89.737717 -5.525773
6.5390177 89.522629 -5.5590277
7.5045953 89.152023 -5.4684048
8.0993805 89.058739 -5.8657269
2.5755732 90.052864 -5.9032307
3.7144086 90.099449 -5.8548999
4.5087194 90.051254 -5.8375921
-34.236824 -53.102272 -4.2592559
-33.513821 -53.302277 -4.4763403
-32.483959 -53.504822 -4.5279355
-31.547583 -53.638561 -4.4608502
-30.505613 -53.674732 -4.4815078
-29.453709 -53.532562 -4.4398785
-28.554905 -53.354633 -4.6053476
-27.256575 -53.164322 -4.7692122
-26.613979 -53.126598 -4.8067279
-25.44339 -53.193779 -4.4358821
-24.472803 -53.373936 -4.5193906
-23.522505 -53.429379 -4.4829545
-22.404385 -53.381268 -4.3466234
-21.463451 -53.340775 -4.4440131
-20.59272 -53.168839 -4.645535
31.996664 -53.036652 -4.5862455
32.526806 -53.421982 -4.5249214
33.470917 -53.755531 -4.5366702
34.58279 -53.678577 -4.5268545
35.55513 -53.407494 -4.6116343
36.517021 -53.220337 -4.5638194
37.652893 -53.138016 -4.5181065
38.516033 -53.117062 -4.5654359
39.417393 -53.150318 -4.5458074
40.542397 -53.257744 -4.4631629
41.462605 -53.333294 -4.5196824
42.355949 -53.425766 -4.5299497
43.469528 -53.486679 -4.5147347
44.607422 -53.486473 -4.4639874
45.425961 -53.434261 -4.5924859
46.465359 -53.323978 -4.4672728
47.227089 -53.077698 -4.4383597
-34.642578 -52.523117 -4.5066867
-27.58275 -52.773354 -4.1658344
-26.588818 -52.894096 -4.3353372
-21.064789 -52.958241 -4.0288844
-20.326828 -52.53894 -4.2706909
-19.925138 -52.351479 -4.7551417
31.795984 -52.472649 -4.5404196
32.022694 -52.725464 -4.0071139
47.733822 -52.67157 -4.5913615
48.159908 -52.235062 -4.4039021
50.89785 -52.04501 -4.9535499
51.699966 -52.142284 -4.5680318
52.575989 -52.398861 -4.4614768
53.613026 -52.63377 -4.4437103
54.526642 -52.555939 -4.5084743
55.178204 -52.276009 -4.2216916
-34.733273 -51.540527 -4.5872722
-20.131723 -51.397041 -4.1850386
-19.904207 -51.486713 -4.6365504
31.829884 -51.702095 -4.5179815
48.442783 -51.58345 -4.4889812
49.644974 -51.240902 -4.7556725
50.471882 -51.41177 -4.4673667
51.190094 -51.854107 -4.4682322
54.838272 -51.691593 -4.6396613
55.168739 -51.490318 -4.1436563
-34.167347 -50.501492 -4.5096717
-33.958359 -50.2458 -4.8851571
-20.128391 -50.627811 -4.1091919
-19.843916 -50.440121 -4.6041813
31.845097 -50.414948 -4.5396686
32.110985 -50.897896 -4.1312757
47.893433 -50.009697 -4.1125154
48.470398 -50.519955 -4.4307346
49.430088 -50.546394 -4.3876305
50.162853 -50.901855 -4.0986576
54.738537 -50.412949 -4.4157085
55.087799 -50.727646 -4.0325828
-34.104481 -49.557339 -4.1983628
-33.788273 -49.225258 -4.6086216
-28.324032 -49.155708 -4.1186104
-27.58946 -49.388107 -4.2242317
-26.889858 -49.117657 -4.0179911
-20.140924 -49.336578 -4.1840706
-19.772877 -49.522297 -4.6116667
31.81464 -49.494537 -4.5280046
47.643604 -49.297882 -4.3242536
48.41758 -49.509384 -4.6936603
49.507519 -49.521534 -4.6370716
50.455849 -49.455917 -4.1996994
51.216644 -49.320793 -4.0260015
53.824261 -49.292717 -4.5478535
54.294876 -49.780674 -4.5646091
-33.500359 -48.514313 -4.5438886
-28.278456 -48.491417 -4.4651151
-27.551346 -48.53154 -4.6655588
-26.528622 -48.326996 -4.386374
-20.230389 -48.434971 -4.2853384
-19.692568 -48.564404 -4.7113843
32.271706 -48.647488 -4.4476676
46.65007 -48.278759 -4.4325533
47.337013 -48.795975 -4.6359463
48.13855 -48.960934 -4.9651842
49.825657 -48.99831 -4.8288488
50.450912 -48.753674 -4.7190733
51.521378 -48.553352 -4.5268345
52.497425 -48.64608 -4.4943352
53.214733 -48.886215 -4.4973345
-33.198307 -47.850323 -4.3869929
-32.628994 -47.323105 -4.608315
-30.537514 -47.008148 -4.0365119
-29.335655 -47.399883 -4.4671693
-28.672438 -47.780117 -4.6573234
-26.218439 -47.797634 -4.8048544
-25.590313 -47.489666 -4.4874125
-24.860077 -47.166157 -4.2270555
-21.21731 -47.126484 -4.1227732
-20.61013 -47.39785 -4.5054431
-19.85615 -47.819599 -4.9294896
32.67701 -47.62236 -4.5208445
45.758743 -47.241947 -4.5392489
46.167278 -47.7645 -4.569427
-32.139065 -46.90646 -4.4219589
-31.514557 -46.660381 -4.5472403
-30.626204 -46.766415 -4.4369736
-29.680799 -46.941032 -4.9806957
-25.167206 -46.758041 -4.828783
-24.463696 -46.541252 -4.5810437
-23.459269 -46.507854 -4.2364907
-22.444326 -46.337914 -4.2924147
-21.479908 -46.403587 -4.5013633
-20.739285 -46.595913 -4.7487941
32.896202 -46.533932 -4.7991166
33.259056 -46.323803 -4.3665104
44.748158 -46.172348 -4.3954563
45.321037 -46.707073 -4.4519105
-23.424637 -45.905468 -4.8823686
-22.48377 -45.843552 -4.8836932
-21.616802 -45.899181 -4.861701
33.607273 -45.77483 -4.7144494
34.446339 -45.340862 -4.4042125
35.230255 -45.047459 -4.2013502
38.84948 -45.158367 -4.1370335
39.167118 -45.065117 -4.2125969
42.837826 -45.026669 -4.0990844
43.558079 -45.290703 -4.4878654
44.328632 -45.827442 -4.4599805
34.869579 -44.924759 -4.7953911
35.430462 -44.799839 -4.6333466
36.43285 -44.595943 -4.5150113
37.482548 -44.598003 -4.3915038
38.520481 -44.788197 -4.6218863
39.630043 -44.579166 -4.5438704
40.713432 -44.30658 -4.5323377
41.594521 -44.385319 -4.4292555
42.451138 -44.501942 -4.5382943
43.050716 -44.769012 -4.688303
29.614052 -34.482319 -4.8758426
30.298176 -34.456581 -4.8287559
31.468203 -34.343128 -4.8439007
32.384605 -34.303173 -4.8146234
27.646692 -33.189007 -4.830265
28.507345 -33.430271 -4.7571239
29.527058 -33.500134 -4.581965
30.592215 -33.50552 -4.5797863
31.487495 -33.304409 -4.5338068
32.365719 -33.612736 -4.5768633
26.587496 -32.335369 -4.7998524
27.530575 -32.440067 -4.4752002
28.513935 -32.504307 -4.3033676
29.428295 -32.774361 -4.1741886
30.490608 -32.700108 -4.1922445
31.440636 -32.370174 -4.2920203
32.391548 -32.504494 -4.6108065
33.378052 -32.230461 -4.9860954
34.460747 -32.484528 -4.8917522
35.464142 -32.380497 -4.8822007
25.705946 -31.346685 -4.8649979
26.468304 -31.527992 -4.4687271
27.597694 -31.650188 -4.1973124
28.408096 -31.641119 -4.070262
31.409409 -31.908083 -4.0506678
32.69817 -31.530331 -4.3616638
33.450405 -31.350426 -4.7364755
34.521828 -31.518642 -4.7292333
35.497948 -31.51268 -4.7502613
36.11586 -31.415634 -4.9602203
24.988031 -30.016445 -4.7901525
25.533781 -30.476486 -4.6327529
26.448364 -30.627888 -4.1488748
33.593487 -30.416636 -4.4348111
34.424168 -30.489626 -4.6016755
35.493874 -30.46414 -4.5920296
36.465588 -30.519354 -4.7014451
37.471924 -30.27755 -4.3675885
38.187202 -30.305075 -4.9393749
23.87145 -29.09864 -4.9900999
24.42684 -29.398291 -4.7196374
25.400072 -29.628939 -4.318264
33.69838 -29.760223 -4.1696606
34.50547 -29.83777 -4.2094612
35.446903 -29.725277 -4.139143
36.341103 -29.734438 -4.1925502
37.65567 -29.866167 -4.0870743
38.451492 -29.559727 -4.5024896
-26.260616 -28.041302 -4.898417
-25.343212 -28.10557 -4.8797164
23.819113 -28.414658 -4.8829041
24.522968 -28.493399 -4.3338671
25.255615 -28.802565 -4.0908189
38.625778 -28.447624 -4.4643912
39.140022 -28.118202 -4.9800148
-27.080235 -27.128918 -4.8265543
-26.471481 -27.557871 -4.6246991
-25.419567 -27.512974 -4.3620696
-24.630398 -27.326067 -4.6402388
-23.799929 -27.163811 -4.9044781
23.757811 -27.338581 -4.7770181
24.16938 -27.429649 -4.3611932
38.573784 -27.467934 -4.3916783
39.27792 -27.379385 -4.7129979
40.145542 -27.147568 -4.8903699
-28.16432 -26.201483 -4.8189473
-27.443796 -26.428822 -4.6126771
-26.663647 -26.584221 -4.3057756
-25.328339 -26.615028 -4.0860286
-24.488398 -26.436407 -4.2326269
-23.504745 -26.513653 -4.6559443
-22.661602 -26.256565 -4.8716631
-21.906437 -26.129959 -4.948514
22.846716 -26.231049 -4.7316694
23.570074 -26.643915 -4.5152888
24.143669 -26.99505 -4.1735477
38.792553 -26.726442 -4.2309704
39.462902 -26.60351 -4.4538717
40.366196 -26.626692 -4.8224306
-29.125397 -25.242002 -4.6621943
-28.553423 -25.664501 -4.395587
-27.333324 -25.908701 -4.075017
-26.783447 -25.893412 -4.0515771
-24.305367 -25.993959 -4.0264783
-23.317083 -25.669519 -4.2674956
-22.56987 -25.571655 -4.503952
-21.746714 -25.239836 -4.7343159
22.655159 -25.41745 -4.6619935
23.193153 -25.427101 -4.1909609
39.613525 -25.446918 -4.2590466
40.368771 -25.427984 -4.6980853
-30.008398 -24.035877 -4.8697114
-29.542498 -24.388584 -4.6461043
-28.970623 -24.847158 -4.0615797
-22.106791 -24.969666 -4.16047
-21.393112 -24.550341 -4.5460334
-20.617758 -24.450838 -4.9179235
22.699675 -24.4494 -4.5253701
23.083405 -24.84053 -4.0801816
39.834938 -24.550957 -4.2250161
40.317158 -24.409464 -4.5149555
-30.26833 -23.391689 -4.7572298
-29.640949 -23.505407 -4.3315053
-21.250694 -23.594015 -4.2762728
-20.643162 -23.52706 -4.7114086
22.611212 -23.647917 -4.5662136
39.896564 -23.932274 -4.0085902
40.642384 -23.544651 -4.2043676
41.100147 -23.306974 -4.7323861
-31.173758 -22.198767 -4.9098668
-30.420389 -22.542559 -4.4977245
-29.73584 -22.827007 -4.0042653
-21.224422 -22.720219 -4.1402388
-20.457096 -22.52758 -4.3694072
-19.628075 -22.518461 -4.783145
22.639648 -22.418795 -4.5845213
23.102156 -22.405993 -4.0922318
40.903866 -22.324942 -4.1613946
41.188347 -22.45573 -4.6287117
-31.164778 -21.599419 -4.8362851
-30.490763 -21.641924 -4.3774505
-21.210646 -21.262337 -4.0662551
-20.471104 -21.538242 -4.2214956
-19.635822 -21.411102 -4.6741948
22.732655 -21.547106 -4.7159896
23.208637 -21.386354 -4.1991034
40.886837 -21.98081 -4.0636258
41.395687 -21.538464 -4.6024852
-32.017971 -20.064196 -4.6125784
-31.49213 -20.434557 -4.5469794
-30.813467 -20.776066 -4.2954473
-21.303873 -20.396412 -4.2018991
-20.534306 -20.655243 -4.5593023
-19.877535 -20.725964 -4.9321079
22.941732 -20.413399 -4.7403479
23.2882 -20.399082 -4.275074
41.83997 -20.671438 -4.559341
42.044037 -20.109173 -4.9574137
-32.485569 -19.545454 -4.460979
-21.140688 -19.616621 -4.179543
-20.49235 -19.562939 -4.7137318
23.684757 -19.439486 -4.4394693
24.106161 -19.266802 -4.1689568
42.127865 -19.374857 -4.6074052
-33.144238 -18.266325 -4.5024834
-32.857155 -18.812267 -4.5982561
-20.393293 -18.401533 -4.3493295
-19.856089 -18.313101 -4.8970914
23.941561 -18.865099 -4.6902642
24.360487 -18.472452 -4.378294
41.98307 -18.65678 -4.0814314
42.173157 -18.429674 -4.5046473
-33.548458 -17.437899 -4.4186864
-20.204264 -17.63558 -4.2428737
-19.781673 -17.489344 -4.6673088
24.719055 -17.506556 -4.497375
25.019241 -17.151999 -4.2686372
42.463932 -17.542208 -4.4460506
-34.036694 -16.210823 -4.1317444
-33.810177 -16.476799 -4.5180211
-20.000502 -16.85965 -4.0751166
-19.454187 -16.5704 -4.5570331
24.990486 -16.952473 -4.7609773
25.537991 -16.604689 -4.4343543
26.080256 -16.244514 -4.096561
42.592346 -16.426304 -4.4611578
-34.091713 -15.283745 -4.374959
-33.912327 -15.566204 -4.7136993
-19.228802 -15.693458 -4.3195691
-18.816849 -15.628414 -4.8010011
25.938965 -15.428648 -4.935935
26.233459 -15.429111 -4.2602105
41.954086 -15.25245 -4.0125189
42.344276 -15.577554 -4.4057841
-34.144405 -14.683994 -4.3401484
-33.815678 -14.750071 -4.9020205
-19.082325 -14.851633 -4.0332274
-18.438494 -14.329503 -4.5324173
25.832798 -14.461038 -4.7062459
26.098095 -14.584033 -4.2819524
41.757542 -14.504539 -4.4667678
42.117702 -14.871628 -4.9963889
-34.118889 -13.593681 -4.2393928
-33.803234 -13.37799 -4.7147298
-18.306118 -13.617703 -4.2973375
-17.827761 -13.512522 -4.8267527
25.755938 -13.414477 -4.6476898
26.076916 -13.523923 -4.1616015
41.619549 -13.569615 -4.3904104
-33.647499 -12.612782 -4.4452281
-18.093256 -12.774942 -4.1607089
-17.63846 -12.506075 -4.5766039
25.618652 -12.520821 -4.4797568
26.021393 -12.802315 -4.0673809
41.831409 -12.532629 -4.4622331
-33.220715 -11.458336 -4.5839987
-17.267784 -11.478792 -4.5154042
24.94474 -11.303655 -4.6915746
25.243677 -11.542525 -4.4132128
41.854961 -11.431827 -4.4829493
-33.148624 -10.562055 -4.6206932
-17.128582 -10.913597 -4.1742015
-16.701057 -10.356926 -4.4696431
23.932783 -10.137073 -4.8731623
24.473326 -10.457619 -4.4697142
25.107267 -10.848961 -4.1433082
41.779568 -10.514715 -4.5928559
-33.474628 -9.4871492 -4.4350209
-16.307959 -9.6709089 -4.6088681
-15.931732 -9.0886993 -4.7314677
23.604351 -9.3836203 -4.6206212
24.088655 -9.7351408 -4.212924
41.638435 -9.5667381 -4.4584765
-34.080589 -8.2179031 -4.6858521
-33.851948 -8.4635267 -4.3788667
-15.605678 -8.5561752 -4.4712615
22.475662 -8.3182201 -4.5938487
23.256203 -8.8728695 -4.3406148
41.393295 -8.4020176 -4.5097899
-34.429306 -7.4199734 -4.517385
-33.907036 -7.8395562 -4.0532503
-15.111828 -7.8601422 -4.419517
-14.837967 -7.4177618 -4.5498934
21.790361 -7.3614821 -4.7051725
22.093668 -7.4492526 -4.3466935
41.153446 -7.6927924 -4.6323175
-34.787884 -6.5103827 -4.5763721
-14.305988 -6.5075107 -4.6304812
-13.992099 -6.0225458 -4.8987207
20.662926 -6.1474395 -4.7211652
21.282299 -6.4249725 -4.2082262
40.851093 -6.4831314 -4.5537491
-34.740517 -5.5072398 -4.3613563
-14.033005 -5.8651061 -4.1013436
-13.680161 -5.4470682 -4.4455123
19.720039 -5.2419128 -4.7074838
20.367065 -5.6219492 -4.4465947
40.627075 -5.575644 -4.544066
-34.631546 -4.4829779 -4.5220461
-13.266012 -4.7936349 -4.1502132
-12.804816 -4.321672 -4.6392689
18.810274 -4.236196 -4.7776175
19.418242 -4.5984054 -4.3946095
40.597031 -4.4404464 -4.5463266
-34.652699 -3.4665279 -4.4775648
-12.30045 -3.5549622 -4.5409636
-11.957083 -3.0828166 -4.9660301
17.921738 -3.1891246 -4.7901382
18.342068 -3.4452276 -4.5953975
19.061283 -3.7133563 -4.0650272
40.741959 -3.5902448 -4.5155544
-34.73299 -2.5589311 -4.503675
-11.694136 -2.5046103 -4.4593081
17.555344 -2.4449465 -4.5710278
18.231447 -2.7977371 -4.1304698
40.658779 -2.4151468 -4.4773359
-34.538986 -1.4575044 -4.5315089
-11.227555 -1.7581035 -4.6259627
-10.835402 -1.1783152 -4.5732756
16.615831 -1.5051587 -4.7738271
17.331638 -1.6871459 -4.1757488
40.48793 -1.454617 -4.4720206
-34.204235 -0.62653035 -4.4539185
-33.864941 -0.34671244 -4.1628113
-10.433452 -0.60279191 -4.5532422
15.850153 -0.45352253 -4.7768741
16.31558 -0.63578433 -4.4367585
40.459202 -0.53723168 -4.4572291
-33.598648 0.60242003 -4.4914489
-10.042095 0.075668767 -4.6008224
-9.7918425 0.64034081 -4.6440601
14.902536 0.92975813 -4.8156781
15.472514 0.54259032 -4.4733138
40.277042 0.37706065 -4.4250455
-33.465321 1.5955312 -4.4968438
-9.3704996 1.568831 -4.4394813
14.547536 1.5971791 -4.7341752
15.24391 1.3368345 -4.1953173
39.846775 1.5939478 -4.3751459
40.064892 1.3401572 -4.5683427
-33.230156 2.5792325 -4.5908241
-32.8144 2.7339497 -4.1497793
-9.0394993 2.1952083 -4.0359297
-8.6974821 2.6137114 -4.5190988
13.8866 2.6977994 -4.7034121
14.379725 2.5125327 -4.3239579
15.04866 2.0196371 -4.0009537
39.438732 2.438122 -4.538146
-33.080097 3.3128016 -4.7515659
-32.692581 3.5786028 -4.4051957
-8.2459192 3.4952462 -4.4939504
-7.8261261 3.9468768 -4.9043121
12.877976 3.7565575 -4.8723984
13.508542 3.5994196 -4.4965982
14.117916 3.1555393 -4.2494011
38.968864 3.8959703 -4.0296907
39.200531 3.5602226 -4.5925117
-32.393444 4.2753386 -4.560863
-31.807322 4.7549314 -4.2507153
-7.5157452 4.377264 -4.3883424
-6.4437037 4.5758018 -4.4737477
-5.5871778 4.744967 -4.7035685
-4.807735 4.9717588 -4.947948
11.782462 4.8259368 -4.8833609
12.525562 4.5061026 -4.6241293
13.230935 4.3238101 -4.2209649
38.820732 4.6145105 -4.3021498
39.125599 4.3197799 -4.8010468
-32.185089 5.086803 -4.9674597
-31.682915 5.3648777 -4.3829684
-5.4865561 5.1461205 -4.1922302
-4.5277677 5.4726992 -4.5430522
-3.7285633 5.7994356 -4.7523394
0.46118465 5.7233424 -4.3730855
1.6289599 5.2247696 -4.5117221
2.4855883 5.1853871 -4.5707922
3.5038249 5.4037967 -4.5779433
4.3251677 5.8153472 -4.5183582
10.616616 5.7963619 -4.6746616
11.414258 5.4384122 -4.3771048
12.248812 5.1833239 -4.1175075
37.816429 5.7939658 -4.3204083
38.303799 5.422636 -4.476212
-31.403141 6.4241862 -4.5268741
-30.843529 6.9393344 -4.094902
-4.3407464 6.1034002 -4.0378528
-3.5715489 6.2637053 -4.3159733
-2.3940151 6.4999733 -4.4253774
-1.5596806 6.6586699 -4.4059639
-0.59744537 6.3932791 -4.524404
0.027111119 6.0193524 -4.1618314
4.8048511 6.1719532 -4.5265918
5.3862028 6.5323224 -4.6352973
6.5127573 6.9078827 -4.7373033
7.5066557 6.8690338 -4.7991447
8.5911837 6.7573862 -4.7368093
9.5279922 6.6754069 -4.4757295
10.402101 6.1555696 -4.4212976
37.41637 6.3639131 -4.4621434
-31.100784 7.1794333 -4.7673311
-30.65395 7.6694374 -4.5480509
6.5884809 7.1190863 -4.196815
7.4526935 7.1772285 -4.1996245
8.5322218 7.0995684 -4.2170224
9.2260418 7.1063356 -4.0749011
36.748199 7.6033144 -4.3566332
37.175854 7.372818 -4.9264612
-30.293962 8.3961554 -4.6929679
-29.887281 8.8482819 -4.5229149
35.763969 8.7320328 -4.3006663
36.317036 8.345335 -4.5736799
-29.373363 9.3778992 -4.6167965
-28.593027 9.8125858 -4.1998677
33.619045 9.8867798 -4.1125765
34.617527 9.6428728 -4.3762684
35.360817 9.3024511 -4.5406485
-28.56469 10.429046 -4.592618
-27.699362 10.990151 -4.0007267
32.974598 10.632687 -4.2919202
33.528271 10.414112 -4.5507412
34.255779 10.178891 -4.8372741
-28.101133 11.284144 -4.6558166
-27.669039 11.641497 -4.522193
-26.884327 11.926315 -4.0811386
31.931549 11.786854 -4.2027664
32.449306 11.561666 -4.5345163
33.009914 11.252683 -4.6850224
-27.270327 12.275191 -4.7477713
-26.530375 12.56898 -4.3891907
-25.576653 12.90643 -4.1480222
29.635748 12.906779 -4.1325927
30.528557 12.792946 -4.6112027
31.46525 12.240348 -4.4528184
32.268711 12.06105 -4.9900908
-26.379877 13.162743 -4.8666363
-25.449259 13.317552 -4.5036612
-24.613417 13.421473 -4.2961364
-23.704472 13.838509 -4.1300182
28.663574 13.681767 -4.3233066
29.441801 13.340122 -4.7578425
-24.41053 14.424636 -4.7608395
-23.521265 14.641548 -4.4668174
-22.579885 14.879361 -4.1865163
25.745968 14.956085 -4.1037836
26.753235 14.639721 -4.4960918
27.572353 14.465748 -4.541357
28.242455 14.187018 -4.4535275
-24.064381 15.128429 -4.9408031
-23.355223 15.302297 -4.796648
-22.543774 15.350646 -4.6335278
-21.469749 15.553465 -4.5430799
-20.592983 15.638258 -4.3206229
-19.982988 15.623489 -4.0331006
23.572615 15.744492 -4.2658634
24.42638 15.586165 -4.5683141
25.460819 15.420487 -4.6306181
26.271978 15.128021 -4.7567148
-20.291948 16.297245 -4.5159202
-19.894409 16.402834 -4.082262
22.871822 16.750256 -4.0862885
23.423836 16.368696 -4.6255379
-20.175009 17.507259 -4.6900306
-19.675425 17.719723 -4.1767039
22.732002 17.568672 -4.2571044
23.157209 17.469324 -4.7548089
-20.038111 18.437529 -4.8223953
-19.487911 18.479601 -4.4021201
-18.863396 18.825506 -4.1476936
22.619675 18.479361 -4.4887834
23.161806 18.091652 -4.9788213
-19.196787 19.365801 -4.7732482
-18.621199 19.62225 -4.4146624
21.731918 19.642902 -4.2386603
22.436939 19.193386 -4.6603637
-18.335857 20.378469 -4.5016556
-17.865999 20.723326 -4.1358008
20.79464 20.773228 -4.1992173
21.459507 20.502302 -4.5821047
22.178288 20.045671 -4.9461842
-18.094763 21.442703 -4.866291
-17.63497 21.562485 -4.4942241
-16.305592 21.960712 -4.1019549
18.636621 21.768673 -4.1605363
19.642374 21.597191 -4.4246736
20.367203 21.359015 -4.4818568
21.137138 21.079952 -4.7350302
-17.274879 22.144043 -4.7868485
-16.460438 22.431818 -4.6773405
-15.602002 22.727249 -4.3122134
17.918434 22.390177 -4.004972
18.378334 22.523544 -4.5542202
19.255884 22.092333 -4.7822685
-15.419804 23.469683 -4.6304884
-14.698703 23.881025 -4.1505632
17.783192 23.546661 -4.1724339
18.229269 23.372795 -4.7282691
-15.176483 24.217566 -4.8996782
-14.587992 24.483656 -4.3994355
17.538153 24.616215 -4.4493713
18.035015 24.24004 -4.8545732
-14.350893 25.46545 -4.4413185
16.900574 25.824379 -4.1557322
17.291512 25.460041 -4.5450363
-14.326939 26.497326 -4.4033852
16.810625 26.494238 -4.2859569
17.115528 26.309454 -4.6943283
-14.331531 27.496258 -4.320848
16.740551 27.464651 -4.5026145
17.005468 27.375351 -4.9285469
-14.592249 28.364122 -4.5173688
16.654728 28.580441 -4.5378108
-15.310292 29.621042 -4.4899011
-14.886016 29.061466 -4.2337246
16.743196 29.5308 -4.5111217
-15.631648 30.60294 -4.5099635
16.845404 30.051844 -4.1702409
17.522993 30.510872 -4.5453644
-16.125132 31.873648 -4.70963
-15.776599 31.322897 -4.3796191
17.927052 31.202017 -4.0836082
18.167503 31.452888 -4.4769931
-16.274147 32.378429 -4.5275302
18.407824 32.467487 -4.4556847
-16.471447 33.506603 -4.4536028
18.730385 33.229237 -4.2973132
19.313486 33.507618 -4.4708304
-19.030613 34.804062 -4.6462655
-18.634378 34.4715 -4.4944038
-17.35041 34.360798 -4.4994807
-16.731674 34.231087 -4.2536211
19.926853 34.71954 -4.4456234
-19.157688 35.353794 -4.3691864
-18.921631 35.740795 -4.8272691
20.329245 35.54208 -4.4062238
-19.102745 36.619236 -4.3690166
-18.924067 36.384499 -4.8024745
20.847378 36.106979 -4.3455725
21.555481 36.71521 -4.5249553
-20.181067 37.862091 -4.5773215
-19.705664 37.454323 -4.498878
21.922316 37.051308 -4.6847439
22.371412 37.5961 -4.4602957
-20.676113 38.510296 -4.4983344
22.83396 38.2215 -4.349947
23.236502 38.791149 -4.446032
-21.226564 39.490265 -4.52493
23.633919 39.354809 -4.4977527
24.131458 39.98917 -4.9436307
-21.673813 40.400421 -4.6191707
24.408709 40.45734 -4.4665146
-22.336113 41.650978 -4.4344301
-21.938768 41.063488 -4.6171575
24.90008 41.461002 -4.3872657
25.060282 41.931335 -4.4623942
-23.384586 42.614964 -4.4780612
-22.786009 42.120441 -4.3880219
25.286997 42.563103 -4.5260391
-24.251583 43.447975 -4.5657587
-23.80319 43.077969 -4.315465
25.677109 43.286278 -4.4657593
26.229473 43.84964 -4.3887224
-34.315617 44.966587 -4.5276418
-33.422112 44.886597 -4.53791
-32.587509 44.774509 -4.661037
-31.560799 44.570862 -4.610755
-30.423655 44.464172 -4.5685468
-29.530622 44.57291 -4.4742427
-28.518597 44.692314 -4.4659514
-27.536766 44.706623 -4.4869776
-26.518011 44.638538 -4.5330706
-25.536673 44.383743 -4.4348869
-24.906448 44.073799 -4.2828321
26.700182 44.282089 -4.4786172
27.311369 44.852264 -4.5713081
-36.33073 45.956314 -4.5760417
-35.501297 45.368095 -4.4584041
-34.708588 45.052803 -4.6777444
27.787374 45.29092 -4.5445943
28.414383 45.756149 -4.5892477
-39.055367 46.890106 -4.3421965
-38.495247 46.590206 -4.4778924
-37.55703 46.338989 -4.527832
-36.795559 46.151535 -4.4445314
28.923075 46.064198 -4.5682855
29.413212 46.24176 -4.3584089
30.469076 46.527889 -4.4003625
31.52257 46.611443 -4.5703602
32.53429 46.374443 -4.4045119
33.421577 46.415157 -4.583591
34.516365 46.561634 -4.5897903
35.41893 46.82975 -4.4354787
36.310707 46.978943 -4.0591063
-41.019802 47.852261 -4.0262547
-40.574776 47.870556 -4.1230764
-39.49844 47.456268 -4.5061493
-38.993904 47.169044 -4.9973207
35.757668 47.15081 -4.7264214
36.543541 47.439018 -4.6619
37.510574 47.630302 -4.4449625
38.170357 47.784016 -4.0595345
-43.558949 48.822392 -4.2016463
-42.36166 48.845448 -4.2103934
-41.486771 48.606655 -4.5789614
-40.610607 48.393284 -4.573525
-39.833363 48.085358 -4.797349
38.639534 48.355202 -4.5594549
39.102173 48.755238 -4.3316422
-44.394337 49.552032 -4.3720694
-43.547436 49.415054 -4.5262213
-42.574581 49.421471 -4.6941171
39.572063 49.551498 -4.591742
40.047989 49.864716 -4.0798216
-45.025017 50.919525 -4.1414852
-44.647648 50.463428 -4.5596333
-43.631058 50.26054 -4.9196925
39.854103 50.175934 -4.6787658
40.336811 50.635033 -4.4014387
-45.092815 51.655262 -4.2793279
-44.85614 51.348022 -4.6697192
40.654301 51.440601 -4.6313076
41.127037 51.795811 -4.3186169
-45.27277 52.494221 -4.4947076
40.839912 52.334179 -4.9196877
41.516552 52.625366 -4.3144927
-45.546402 53.53257 -4.4721942
41.739975 53.415947 -4.6802888
42.159805 53.667492 -4.2228484
-45.518513 54.514069 -4.6107478
41.919502 54.284714 -4.9043484
42.238258 54.408627 -4.459486
-45.576618 55.50618 -4.4368167
42.346226 55.610264 -4.4778476
-45.554577 56.524448 -4.4322848
41.846943 56.688698 -4.8461461
42.21014 56.498013 -4.3981915
-45.338589 57.311485 -4.382082
-44.438728 57.640385 -4.8900118
-43.808876 57.852459 -4.9113126
41.823479 57.496517 -4.710012
42.142796 57.377121 -4.2775989
-45.159477 58.490265 -4.1298647
-44.511593 58.459736 -4.5465178
-43.519379 58.549408 -4.7468681
41.723591 58.620846 -4.6268115
42.142742 58.346203 -4.1636128
-44.33638 59.23201 -4.217051
-43.269554 59.373211 -4.4318261
-42.525688 59.700504 -4.7012572
-41.904671 59.831268 -4.947753
40.917381 59.915604 -4.9794464
41.55378 59.438866 -4.4640775
-42.345905 60.273315 -4.3191929
-41.380775 60.510765 -4.4991083
-40.67654 60.704559 -4.6933851
40.702717 60.616512 -4.6044617
41.23732 60.260727 -4.3335457
-40.401699 61.192657 -4.3671756
-39.650627 61.670788 -4.5567746
39.711998 61.525227 -4.8247313
40.440662 61.53828 -4.3232031
-39.37402 62.107643 -4.2100291
-38.469349 62.393158 -4.5543065
-37.586266 62.715965 -4.4845662
-36.895832 62.95842 -4.7003961
38.898445 62.84634 -4.814764
39.447971 62.460846 -4.5135818
40.319 62.040092 -4.2077799
-36.436394 63.30114 -4.5023756
-35.570896 63.859051 -4.5365248
38.449467 63.613384 -4.516305
39.179813 63.162292 -4.1057725
-35.108074 64.05619 -4.6423674
-34.469658 64.227898 -4.5561099
-33.465908 64.454147 -4.5101833
-32.439636 64.755028 -4.5113053
-31.51396 64.878441 -4.5490742
-30.716488 64.939911 -4.3207002
31.966812 64.998383 -4.9509525
33.608559 64.928543 -4.699719
34.638309 64.822487 -4.5233202
35.640541 64.808609 -4.4993033
36.587185 64.70108 -4.4689198
37.444187 64.408569 -4.4597678
38.153484 64.136459 -4.130599
-30.161762 65.063385 -4.6164966
-29.421747 65.423393 -4.4780893
-28.819609 65.873337 -4.3888898
28.701012 65.778145 -4.5467081
29.518867 65.483154 -4.4796996
30.421207 65.306007 -4.4451222
31.445051 65.198914 -4.4347606
32.608215 65.190598 -4.4499011
33.325211 65.168633 -4.3402276
34.962448 65.024399 -4.0629992
35.015369 65.012184 -4.084446
-28.354603 66.243332 -4.5800028
-27.607969 66.705917 -4.5817742
28.374632 66.567276 -4.5393424
-27.125874 67.036667 -4.4834909
-26.489782 67.588821 -4.4826808
28.383549 67.604538 -4.5067205
-26.055849 68.197281 -4.5050097
-25.907406 68.684135 -4.6267309
28.623432 68.399094 -4.5737319
-25.515079 69.629883 -4.4978547
28.750683 69.681915 -4.492506
-25.166279 70.193192 -4.7200737
-24.712648 70.712776 -4.5064225
28.458443 70.46965 -4.4907384
-24.248747 71.135933 -4.5050159
-23.557556 71.531555 -4.5771732
-22.832481 71.907776 -4.4390683
27.58742 71.597664 -4.4516487
28.128265 71.097351 -4.3500462
-22.411196 72.405792 -4.5080943
24.971745 72.993103 -4.9632015
25.59646 72.707092 -4.5448313
26.463928 72.311783 -4.5105023
27.024866 72.031479 -4.4269309
-21.681753 73.434662 -4.6375189
22.839987 73.838242 -4.44172
23.517288 73.61515 -4.5266356
24.49353 73.227745 -4.4832063
-21.126114 74.043282 -4.5383434
-20.528854 74.517014 -4.3977494
-19.971472 74.915039 -4.0585127
21.762857 74.783508 -4.6622281
22.315521 74.252403 -4.4386387
-19.508905 75.350243 -4.5257812
-18.519573 75.779289 -4.4996595
-17.888357 75.978394 -4.3526521
20.677053 75.702766 -4.5740781
21.359003 75.220268 -4.5287194
-17.579651 76.439026 -4.4878273
19.877558 76.756241 -4.1481876
20.212555 76.475906 -4.5038276
-17.287163 77.461929 -4.5958142
-16.90383 77.804649 -4.1194649
19.71105 77.626305 -4.4362979
20.147539 77.178452 -4.7037759
-17.09458 78.006027 -4.9908519
-16.564854 78.489861 -4.5201817
18.66304 78.756386 -4.5605254
19.278555 78.222466 -4.6772809
-16.167158 79.149681 -4.7334957
-15.775331 79.556938 -4.4523435
17.729818 79.707375 -4.5098619
18.128305 79.242027 -4.4892645
-15.243923 80.353149 -4.4363155
-14.800796 80.782616 -4.3545032
16.942083 80.960732 -4.6263242
17.241604 80.444313 -4.5327525
-14.304893 81.165413 -4.5262094
-13.490596 81.449982 -4.4206419
-12.968495 81.648048 -4.0380373
15.795031 81.944908 -4.4371591
16.450243 81.536171 -4.4805813
-13.125527 82.242477 -4.6580033
-12.779263 82.497581 -4.3135991
14.76949 82.58725 -4.3902297
15.342968 82.141365 -4.4949808
-13.024338 83.186478 -4.8729739
-12.410707 83.431267 -4.4316025
-11.745369 83.86264 -4.2115784
14.420053 83.542915 -4.4115906
-12.186867 84.248863 -4.7759008
-11.532998 84.407402 -4.37041
-10.876175 84.941154 -4.0396852
13.668934 84.629425 -4.506319
14.185743 84.163399 -4.7478313
-11.185125 85.296783 -4.7306404
-10.592548 85.541885 -4.4263487
12.770665 85.644852 -4.3772054
13.168907 85.335892 -4.5959282
-10.169462 86.134964 -4.909584
-9.5290241 86.407242 -4.604053
-8.6376524 86.861137 -4.6054959
10.802027 86.926224 -4.0178285
11.620748 86.669762 -4.3883696
12.285266 86.307098 -4.8806019
-8.3037882 87.234825 -4.2856364
-7.6121535 87.617126 -4.5214944
-6.9803677 87.983208 -4.624033
8.741148 87.842285 -4.5380397
9.5835686 87.533226 -4.3625312
10.414944 87.473518 -4.5948682
11.372617 87.131706 -4.7650423
-7.1508551 88.118042 -4.0263834
-6.5185795 88.260406 -4.4534831
-5.4410458 88.461754 -4.4668989
-4.5700827 88.49572 -4.4565697
-3.7708423 88.791779 -4.4792671
6.7195797 88.904251 -4.4026594
7.5318775 88.577179 -4.4134355
8.1928844 88.192368 -4.5375485
-3.2909131 89.187241 -4.4409528
-2.4971302 89.481186 -4.6070566
-1.558935 89.646675 -4.5157442
-0.46894988 89.756294 -4.4692726
0.45161825 89.792709 -4.5852914
1.5163833 89.825974 -4.5687203
2.5549796 89.685524 -4.5773807
3.5581679 89.404953 -4.4438276
4.5825462 89.320076 -4.436348
5.3253827 89.313171 -4.5294094
6.3735471 89.084137 -4.5129375
0.3525466 90.016907 -4.0531549
1.6540517 90.026924 -4.0586915
-34.427845 -53.289925 -3.3667297
-33.550858 -53.555729 -3.4599767
