# .PCD v0.7 - Point Cloud Data file format
VERSION 0.7
FIELDS x y z
SIZE 4 4 4
TYPE F F F
COUNT 1 1 1
WIDTH 1385
HEIGHT 1
VIEWPOINT 0 0 0 1 0 0 0
POINTS 1385
DATA ascii
0.40613928 0.014218487 0.43757311
0.41329399 0.013791323 0.43265298
-0.50168532 0.020968467 0.4315874
-0.4942753 0.025163762 0.43194771
-0.48597923 0.024477381 0.43340701
-0.47406867 0.024500826 0.43441367
-0.46604669 0.02347227 0.43572769
-0.45558566 0.024666335 0.43641859
-0.44562849 0.026431831 0.43725392
-0.43546811 0.027466554 0.43849146
-0.42698637 0.0286546 0.4389303
-0.41414419 0.028459812 0.43907902
-0.40411732 0.027900152 0.4382399
-0.39343897 0.024478218 0.43736234
-0.38327441 0.026082415 0.43292707
-0.37557817 0.024440087 0.43139976
-0.36491305 0.024765262 0.43212941
-0.35573196 0.025157571 0.43367749
-0.34468833 0.025184715 0.4344961
-0.33471307 0.024439998 0.43317184
-0.32413265 0.02453641 0.43178251
-0.31613919 0.023734612 0.4326418
-0.30454922 0.02394139 0.4339678
-0.29477751 0.024208605 0.434295
-0.28441748 0.025472658 0.43346173
-0.27820721 0.02324691 0.43244356
-0.20232853 0.020633575 0.4302412
-0.1936596 0.022755375 0.43177223
-0.18540977 0.024583163 0.43334961
-0.17369995 0.023600848 0.43770838
-0.16689675 0.025520286 0.43860221
-0.15218735 0.028017608 0.43910095
-0.14267956 0.02701227 0.43964916
0.39836785 0.027065791 0.43675345
0.40396294 0.026013667 0.43294525
-0.49133009 0.030742422 0.43023762
-0.48385206 0.030992018 0.43116155
-0.47485065 0.034110006 0.43095446
-0.46487215 0.034593578 0.43188575
-0.45545515 0.034237333 0.43314254
-0.44549912 0.035399295 0.43412679
-0.43502688 0.035660416 0.4353956
-0.42657438 0.0361849 0.43590239
-0.41371423 0.034223516 0.43623707
-0.40441766 0.034397408 0.43529043
-0.39508858 0.034377903 0.4335593
-0.3849681 0.032140058 0.43087697
-0.35213104 0.031004425 0.4304496
-0.34686455 0.031048844 0.43045518
-0.31307992 0.034120068 0.43067744
-0.30683666 0.034637019 0.43169197
-0.29433623 0.034258496 0.43242797
-0.28523317 0.034207277 0.4315564
-0.27974281 0.032747835 0.43052217
-0.18309447 0.031037038 0.43060866
-0.17380449 0.034400024 0.43173692
-0.1656625 0.036582701 0.43339086
-0.15438753 0.035426483 0.4349657
-0.14394267 0.033696402 0.43658555
-0.13825293 0.033890828 0.43753058
-0.12666833 0.037278526 0.43894628
-0.11816844 0.03928449 0.4397313
0.38648748 0.037499648 0.43806085
0.39474958 0.035620898 0.43388265
0.40109885 0.032904353 0.43060744
-0.45469573 0.04145724 0.43025869
-0.44841224 0.043132965 0.43033192
-0.43530044 0.043018073 0.4321565
-0.42600626 0.043403305 0.43261242
-0.41664323 0.043522902 0.43216538
-0.40550739 0.04452486 0.43108529
-0.39511603 0.041223139 0.43072879
-0.30230072 0.041942921 0.43070388
-0.29405057 0.042482402 0.43075144
-0.28825355 0.042600084 0.43010974
-0.16348127 0.042406786 0.4307735
-0.15592185 0.043490853 0.43089983
-0.14598927 0.043295819 0.43145838
-0.13517012 0.044567108 0.43286064
-0.12531528 0.045443293 0.43424585
-0.11413287 0.045015171 0.43706045
-0.10487501 0.048128247 0.43932539
0.37423214 0.047396332 0.43777528
0.38390136 0.044380151 0.43462789
0.3925682 0.041723415 0.43128181
-0.13073476 0.050531283 0.43042973
-0.12093204 0.051740281 0.43093807
-0.11443929 0.05385584 0.43159229
-0.10365037 0.05573516 0.43561324
-0.095860437 0.056319945 0.43796399
-0.086900719 0.057877079 0.43886113
0.19640572 0.05882461 0.43935972
0.20380698 0.058795184 0.43903765
0.21170953 0.057794172 0.43918654
0.35830587 0.058078647 0.43833423
0.36487532 0.056503531 0.43599334
0.37274116 0.053387642 0.43385616
0.38098395 0.050783668 0.43079966
-0.10428823 0.060517788 0.4324328
-0.09496925 0.062989511 0.43461171
-0.085196659 0.064932734 0.4356004
-0.075115874 0.063482173 0.43835273
-0.064861894 0.065384179 0.43859315
-0.053619068 0.065768458 0.43876874
-0.045230672 0.065960072 0.43930006
-0.034366392 0.068991646 0.43932685
-0.02505897 0.06798403 0.43836451
-0.014764242 0.064928919 0.43816933
-0.0081692142 0.068083495 0.43891612
0.17900862 0.068941571 0.43950966
0.1856751 0.064235799 0.43907198
0.19643839 0.065372899 0.43648648
0.20383832 0.063864812 0.43586546
0.21659246 0.065312944 0.43431973
0.22405392 0.065052681 0.43560648
0.23542148 0.06913694 0.43573454
0.24003565 0.069103405 0.43740976
0.32852116 0.069032244 0.43987846
0.33662397 0.068500534 0.43810791
0.34400377 0.065831825 0.43789989
0.3538464 0.063677348 0.43532255
0.36246562 0.06188111 0.43217179
-0.092281431 0.071311489 0.43084794
-0.083603829 0.07376457 0.43143848
-0.073278286 0.075402066 0.43271819
-0.065571047 0.073709622 0.43486926
-0.055006217 0.075058192 0.4351818
-0.044107307 0.075498067 0.43609113
-0.033437539 0.076801151 0.43645906
-0.024653841 0.075604349 0.43568534
-0.015779538 0.07296104 0.43602872
-0.0061403457 0.075391501 0.43865171
0.17601098 0.077129245 0.43927237
0.18610309 0.076650575 0.43705332
0.19437778 0.076198205 0.43446177
0.20428415 0.074944846 0.43177125
0.21383542 0.072694764 0.43101758
0.22592017 0.071963668 0.43122503
0.23511699 0.072133102 0.43245682
0.24415676 0.072986372 0.43455189
0.25469872 0.075501092 0.43432564
0.26619551 0.07845933 0.43458915
0.2759183 0.077916704 0.43710074
0.28470466 0.078434132 0.43664622
0.29500842 0.076604731 0.43828097
0.30612829 0.076871842 0.43700752
0.31548014 0.07512711 0.43688959
0.32360271 0.074949726 0.43507254
0.33517364 0.074063361 0.43287325
0.3453761 0.071435675 0.43166587
-0.071392328 0.080297619 0.4305917
-0.065118417 0.082302012 0.43075231
-0.054226886 0.083979964 0.43137768
-0.04533923 0.08443211 0.43229288
-0.035289608 0.082583606 0.43425509
-0.025484771 0.084886812 0.43270892
-0.01505133 0.083954528 0.43407813
-0.0041061128 0.085825019 0.43739805
0.00020332707 0.084690273 0.43923348
0.17684223 0.085889719 0.43865088
0.18457729 0.08636719 0.4369587
0.19447225 0.083614841 0.43357354
0.20251726 0.085762866 0.43116605
0.26555645 0.081646137 0.43045151
0.2746757 0.08188919 0.43233147
0.28340533 0.083011933 0.43193865
0.29443932 0.083051085 0.43197182
0.30644417 0.081647441 0.43229097
0.311508 0.082711376 0.43025768
-0.036761101 0.091015399 0.43074912
-0.022743268 0.092051357 0.43048939
-0.014953863 0.093544766 0.43158969
-0.0052496991 0.09446723 0.43470004
0.0054061022 0.09626741 0.43766966
0.012315338 0.097111084 0.43886283
0.023319431 0.098649599 0.43997011
0.16973519 0.095726699 0.43987083
0.17385194 0.095324636 0.4391343
0.18376888 0.094775148 0.43715128
0.19333756 0.094822682 0.434416
0.20413224 0.09615998 0.43122101
-0.6439296 0.10814513 0.43500763
-0.63468665 0.10629459 0.43601122
-0.6248613 0.10428943 0.43490615
-0.61552662 0.10315234 0.43418095
-0.60512882 0.1039721 0.43525508
-0.59354264 0.10515096 0.43538895
-0.58392566 0.10697863 0.43448481
-0.57512903 0.10851313 0.43297082
-0.56955147 0.10937572 0.4323422
-0.0058632018 0.10285931 0.43147296
0.0050532143 0.10447153 0.43436575
0.013930034 0.10520951 0.43615085
0.025527922 0.10619172 0.43765214
0.035138492 0.10603792 0.43871692
0.043418214 0.10779943 0.43960765
0.15861611 0.10965076 0.43992111
0.16460116 0.10609605 0.43987733
0.17502344 0.10498043 0.43890497
0.18585795 0.10371106 0.4367663
0.19607227 0.10351204 0.43381131
0.20309636 0.10288578 0.43167716
-0.69113564 0.1197985 0.43385753
-0.68410075 0.11814806 0.43416983
-0.67506123 0.11573575 0.43513265
-0.66465735 0.11341289 0.43507913
-0.65429497 0.11128806 0.43554246
-0.64936852 0.11026092 0.43775696
-0.57351035 0.1104817 0.43894419
-0.56550664 0.111182 0.43594745
-0.55431074 0.11342905 0.43488091
-0.54480201 0.11625773 0.43337533
-0.53781158 0.11880147 0.43290427
0.015733071 0.11386602 0.43255472
0.024191938 0.11297723 0.43461546
0.034802593 0.11426628 0.43561932
0.045695029 0.11429275 0.43753961
0.053760197 0.11683746 0.43807995
0.06552992 0.11811275 0.43902692
0.075334094 0.11852337 0.43940133
0.085871607 0.11843121 0.43871307
0.096794769 0.11798419 0.43904075
0.10607781 0.11830319 0.43946478
0.11649869 0.11902918 0.43949646
0.12882482 0.116519 0.43997458
0.13431676 0.11740725 0.4392865
0.14653774 0.11561172 0.43925896
0.15389858 0.11526392 0.43949008
0.16556808 0.11691998 0.43874726
0.1761364 0.11494371 0.4378022
0.18478577 0.11360894 0.43622187
0.1956556 0.11455558 0.43284348
0.20389561 0.11222993 0.4307107
-0.71440154 0.12872067 0.43471161
-0.70493001 0.12476544 0.43572727
-0.69493365 0.12154729 0.43635872
-0.53373092 0.12151163 0.43636581
-0.52468371 0.12543043 0.4336046
-0.51888835 0.12892134 0.43428361
0.0257928 0.12245137 0.4303211
0.035393357 0.12333809 0.43182254
0.044058245 0.12456121 0.4328129
0.055587158 0.12747382 0.43352866
0.064741746 0.12440886 0.43593216
0.075856596 0.12482056 0.43613824
0.084741585 0.12422958 0.43537986
0.094484501 0.12420058 0.43582475
0.10528055 0.12409703 0.43697727
0.1161264 0.12512177 0.43723825
0.12461349 0.12452134 0.43759698
0.1340147 0.12510023 0.4375304
0.14537719 0.12761907 0.43708998
0.15417196 0.12574512 0.43780109
0.16675784 0.1249563 0.43710718
0.17546311 0.12455244 0.435857
0.18548077 0.12599106 0.43262079
0.1939889 0.12332127 0.43110293
-0.73198336 0.13836727 0.4337053
-0.72546071 0.13425277 0.43449298
-0.71949202 0.13144977 0.43541053
-0.51356381 0.13286425 0.43609008
-0.50695705 0.13820921 0.43471321
0.054933038 0.13263597 0.43077219
0.065775082 0.13236967 0.43180344
0.073783956 0.13258487 0.43165451
0.085580781 0.13210265 0.43115738
0.094403654 0.13211423 0.4318932
0.10406391 0.13643816 0.43148342
0.11434241 0.13509578 0.43333071
0.12548134 0.13593712 0.43391162
0.13387945 0.1339402 0.43536299
0.14451449 0.13463238 0.43535969
0.15563241 0.13409568 0.43525583
0.16479039 0.13583824 0.43341273
0.17523168 0.13483733 0.43156356
0.18257026 0.13263255 0.43061209
-0.74274963 0.14836028 0.43406346
-0.73715407 0.14418988 0.43603805
-0.50259525 0.1435198 0.43757781
-0.49780631 0.14649281 0.43340665
0.11433659 0.14188175 0.43043715
0.12648953 0.14225118 0.43166694
0.13658001 0.14552416 0.43129107
0.14537264 0.14402734 0.43187609
0.15454802 0.14450136 0.43101954
0.16617808 0.14129561 0.43066558
-0.75172877 0.15721518 0.43120605
-0.74626988 0.15327784 0.43597227
-0.49220854 0.15433398 0.43680152
-0.48811087 0.15707009 0.43196496
-0.76023179 0.1687151 0.43111777
-0.75621814 0.16543491 0.43436873
-0.4834615 0.16457619 0.43437421
-0.47960487 0.16953281 0.43251488
-0.76316369 0.17620365 0.43361241
-0.75763291 0.17001949 0.43760121
-0.47790793 0.17489538 0.43631476
-0.76710564 0.18461403 0.43375072
-0.47236276 0.18483452 0.43517956
-0.77056903 0.19981101 0.43686342
-0.76839018 0.19307469 0.43755078
-0.47056416 0.19212234 0.43807268
-0.4670473 0.19518441 0.43417349
-0.77298963 0.20653251 0.43421543
-0.4638733 0.20440735 0.43542862
-0.45943099 0.20731631 0.43114319
-0.77375847 0.2153517 0.43511084
-0.46235305 0.21312857 0.43730313
-0.45670053 0.21616663 0.43207762
-0.77430773 0.22560962 0.43399248
-0.46164685 0.22346023 0.43947971
-0.45587826 0.22587456 0.43451703
-0.44994506 0.22874017 0.43057367
-0.77258015 0.23473926 0.43523273
-0.46003121 0.23357511 0.43993208
-0.4544411 0.23682389 0.4352355
-0.44888088 0.23537081 0.43076998
-0.77115923 0.24541068 0.43220463
-0.76820111 0.24856596 0.43746078
-0.45605394 0.2437776 0.4365907
-0.44886321 0.24372314 0.43106824
-0.76722735 0.25647518 0.43418303
-0.46175256 0.25628427 0.43978769
-0.45489874 0.25467023 0.43427718
-0.44932476 0.25362521 0.43040788
-0.76358837 0.26548904 0.43605939
-0.46247312 0.26560023 0.43786636
-0.45521483 0.26387388 0.43228874
-0.76237094 0.27261287 0.43239474
-0.75896144 0.2764906 0.43618432
-0.46394861 0.27483544 0.43569314
-0.45821381 0.27321047 0.43126592
-0.7567957 0.28406239 0.43382818
-0.47103992 0.28616109 0.43620881
-0.46754733 0.28476015 0.43338487
-0.75250423 0.29141116 0.43613532
-0.74871856 0.29933748 0.4378908
-0.47394729 0.29421967 0.433568
-0.75070876 0.30172196 0.43101096
-0.74766213 0.30517465 0.43524572
-0.48292312 0.30593258 0.43567833
-0.47763118 0.30022532 0.43314716
-0.74430043 0.31545413 0.43576157
-0.49175745 0.31747991 0.43902296
-0.48803064 0.31440446 0.43610474
-0.74305224 0.32351187 0.43323851
-0.73881292 0.32788426 0.43873319
-0.49479616 0.32598504 0.43625382
-0.48923126 0.3207269 0.43267214
-0.740861 0.33236438 0.43170458
-0.73831832 0.33516571 0.4351832
-0.50169873 0.33762544 0.43829623
-0.49654308 0.33468148 0.43198803
-0.73554176 0.34553421 0.43478644
-0.50250357 0.34574854 0.43603787
-0.49921185 0.34268981 0.43190441
-0.73277891 0.35412815 0.43579289
-0.72955179 0.35877633 0.43971908
-0.50272542 0.35393688 0.43396115
-0.73132473 0.36366463 0.43312114
-0.72919261 0.36732262 0.43495446
-0.50403577 0.36334842 0.43490219
-0.72700423 0.37425768 0.43445987
-0.50460756 0.37453884 0.43489471
-0.72282875 0.38553697 0.43417001
-0.71885109 0.38924727 0.43796217
-0.50499129 0.38502663 0.43412569
-0.72136879 0.39252633 0.43164891
-0.71684611 0.39453581 0.43678492
-0.50620407 0.39661133 0.43463591
-0.71206915 0.40392447 0.43598634
-0.70895672 0.4077315 0.43654227
-0.50657898 0.40595791 0.43433732
-0.70559931 0.41582298 0.43340921
-0.69827884 0.41748339 0.43997398
-0.5107829 0.41646892 0.43965533
-0.50700474 0.41617605 0.43338397
-0.7014854 0.42216983 0.43197915
-0.69584954 0.42586127 0.43440464
-0.51066208 0.42470685 0.43706703
-0.50831026 0.42513371 0.43314633
-0.6920957 0.4314248 0.43253428
-0.68548948 0.43523276 0.43445897
-0.6753248 0.4378376 0.43969959
-0.51292723 0.43534875 0.43668985
-0.5085178 0.43382955 0.43092296
-0.68082237 0.44118077 0.4321464
-0.67413408 0.44359845 0.43481067
-0.6666432 0.44690162 0.43792316
-0.5219847 0.4481681 0.43950412
-0.51575184 0.44429952 0.43518201
-0.66383159 0.45226839 0.43458363
-0.65592009 0.45591313 0.43700153
-0.64888465 0.45870957 0.43945241
-0.53120154 0.45950645 0.43957981
-0.52408224 0.45538598 0.43714476
-0.51766783 0.45289892 0.4330337
-0.65460628 0.46113318 0.43244064
-0.64446658 0.46551374 0.43527803
-0.63759643 0.46724412 0.43722761
-0.62889051 0.46941954 0.43883872
-0.54287785 0.46866214 0.438501
-0.53397679 0.46570158 0.43693665
-0.52735907 0.46616521 0.43277213
-0.64123559 0.47127068 0.43095547
-0.63345277 0.47193861 0.43403175
-0.62399095 0.47416052 0.43562129
-0.61540443 0.4771283 0.43546584
-0.6066342 0.47831458 0.43627053
-0.59616601 0.47827795 0.43772542
-0.58438569 0.47828808 0.43829286
-0.57416475 0.47816718 0.4378325
-0.56553149 0.47757709 0.43685642
-0.55456454 0.47573581 0.43620804
-0.54395831 0.47501448 0.43381807
-0.53548938 0.47195563 0.43288669
-0.6147728 0.48043144 0.4319948
-0.60365582 0.48231214 0.43208134
-0.59299809 0.48267281 0.43319798
-0.58562827 0.48359752 0.43275094
-0.5751543 0.48265937 0.43336099
-0.56665385 0.48341307 0.4314037
-0.55482227 0.48143929 0.43132532
-0.46247292 -0.64163107 0.44305751
-0.45456123 -0.6430549 0.44612914
-0.44572216 -0.64466918 0.44447896
-0.43589225 -0.64550412 0.44434977
-0.42625418 -0.64615506 0.44357803
-0.41363382 -0.64601994 0.44489339
-0.40297553 -0.64573795 0.44471711
-0.39590472 -0.64556038 0.44401994
-0.38605443 -0.64562774 0.44518003
-0.37528971 -0.64555705 0.44579107
-0.36740494 -0.64600807 0.44497088
-0.35461533 -0.64512676 0.44642857
-0.34700751 -0.64483392 0.44311413
-0.33551365 -0.64402866 0.44390252
-0.32421121 -0.64253056 0.44634777
-0.31525972 -0.64170265 0.44451737
-0.30686608 -0.64094305 0.44409493
-0.29933876 -0.64138687 0.44178122
-0.28605831 -0.64034736 0.4400557
-0.22352526 -0.64077598 0.44066334
-0.21108 -0.64307147 0.44456506
-0.2068502 -0.64387244 0.44484317
-0.19506805 -0.64413518 0.44500235
-0.18451601 -0.64372748 0.44652405
-0.1753896 -0.64408422 0.44468865
-0.16458182 -0.64396816 0.44410643
-0.15569837 -0.64421928 0.44549173
-0.14664125 -0.64413595 0.44623122
-0.13302907 -0.64446974 0.44649488
-0.12144932 -0.64431423 0.44805366
-0.1166303 -0.64455807 0.44829011
-0.10379121 -0.64340663 0.44969949
0.018763734 -0.64244372 0.44937658
0.026074452 -0.64193481 0.44533062
0.034852091 -0.64338499 0.44680747
0.045580387 -0.64310217 0.44504461
0.054074358 -0.64290756 0.44597569
0.065461442 -0.6439442 0.44491068
0.074382216 -0.64445519 0.4462544
0.084423535 -0.64413202 0.44525337
0.093034327 -0.64365166 0.44269481
0.10511442 -0.64462769 0.44575125
0.11364027 -0.64518553 0.44647515
0.12575571 -0.64492297 0.4453212
0.13603318 -0.64500797 0.44395903
0.14609489 -0.64487153 0.4440344
0.15611386 -0.64496148 0.44395903
0.16378495 -0.64468992 0.44432694
0.17529978 -0.64470887 0.44565025
0.18495177 -0.64442354 0.44382668
0.19324981 -0.64400029 0.44611779
0.20476556 -0.64365596 0.44535831
0.21495426 -0.64358801 0.44491905
0.22365992 -0.64367187 0.44596681
0.23451132 -0.64330202 0.44498089
0.24225113 -0.64284259 0.4438737
0.25527012 -0.64138466 0.44416857
0.26324752 -0.64108628 0.44303164
0.27180678 -0.64048946 0.44058043
-0.481648 -0.63239223 0.44000065
-0.47325373 -0.63467181 0.44423056
-0.4666594 -0.6371454 0.4473362
-0.31077063 -0.63912547 0.44942135
-0.30538619 -0.63948154 0.44710833
-0.29543281 -0.63832664 0.44735694
-0.28474161 -0.63741785 0.44540977
-0.27388498 -0.63482547 0.44491979
-0.26456323 -0.63250721 0.44472754
-0.2561802 -0.6332078 0.4417395
-0.24433434 -0.63090837 0.44081384
-0.23410334 -0.63396579 0.44329628
-0.22633742 -0.63684207 0.44593224
-0.2172762 -0.63990217 0.44779989
0.255889 -0.63977796 0.44910756
0.26437205 -0.63923395 0.44779748
0.27460566 -0.63858145 0.44372088
0.28637606 -0.63572854 0.44441321
0.29527238 -0.6327967 0.44588473
0.30203694 -0.63258207 0.44244495
-0.48224628 -0.62221456 0.44057834
-0.4754115 -0.62396318 0.44696632
-0.26459542 -0.62369096 0.44807464
-0.2556195 -0.62472457 0.4447374
-0.24481328 -0.62545168 0.44286484
-0.23555568 -0.62523705 0.44555384
0.30678186 -0.62781203 0.44683242
0.31541589 -0.62512565 0.44372642
0.32139704 -0.62122971 0.44303799
-0.48081031 -0.61433345 0.44145712
-0.47490981 -0.61494696 0.44696978
-0.27032465 -0.61090904 0.44926772
-0.26336274 -0.61608678 0.44712052
-0.25628456 -0.6143288 0.44422129
-0.24576689 -0.61476243 0.44228947
-0.23620696 -0.6142925 0.44535303
0.31710699 -0.61574388 0.44811761
0.32612503 -0.61378103 0.44440582
0.33211997 -0.61215073 0.44064102
-0.48032832 -0.60949337 0.44125894
-0.47619846 -0.60465521 0.44364595
-0.46991408 -0.60150295 0.44910079
-0.27077121 -0.60389149 0.44851488
-0.26524118 -0.60438293 0.44645065
-0.25457972 -0.60511374 0.44231328
-0.24515653 -0.60888094 0.4403325
-0.23477077 -0.60383928 0.44518918
0.32454824 -0.60571313 0.44740728
0.33245814 -0.60538161 0.44280142
-0.47322914 -0.5947445 0.44380319
-0.46812713 -0.59198946 0.44789743
-0.27445686 -0.59314251 0.44778219
-0.2641876 -0.59518093 0.44464567
-0.25672117 -0.59394079 0.44120276
-0.23280035 -0.59486824 0.44551262
0.32641926 -0.59566581 0.44893047
0.33499289 -0.59517372 0.4444859
0.34238142 -0.5926801 0.4407239
-0.47206354 -0.58370256 0.44124454
-0.46583489 -0.58270663 0.44698122
-0.29119638 -0.58046192 0.44996464
-0.28465933 -0.58379799 0.44874722
-0.27491179 -0.58478069 0.44630247
-0.26450863 -0.58443439 0.44304243
-0.23294015 -0.58636826 0.44204038
-0.22852881 -0.58301276 0.44729194
0.3285436 -0.58880287 0.44942069
0.33449179 -0.58562642 0.4472174
0.34187406 -0.58720684 0.44249505
-0.47006077 -0.57734525 0.44078791
-0.46423486 -0.57502508 0.44546869
-0.45923734 -0.57281691 0.44918612
-0.29047665 -0.57143253 0.44814059
-0.28414053 -0.5753985 0.44689482
-0.27437383 -0.57555592 0.44404101
-0.26596934 -0.57411832 0.44144705
-0.23155394 -0.57936817 0.44082314
-0.22686552 -0.57501727 0.44563118
0.33691245 -0.57535404 0.44800335
0.34604594 -0.57517523 0.44240749
0.35095537 -0.57023692 0.4404279
-0.46289581 -0.56597126 0.44236261
-0.45687985 -0.56492752 0.44709796
-0.31219995 -0.56100851 0.4490858
-0.30571562 -0.56233329 0.44913068
-0.29489642 -0.56488848 0.44777972
-0.28642949 -0.56497353 0.44485337
-0.27545705 -0.56635761 0.44163957
-0.2667262 -0.56842148 0.44049397
-0.22297591 -0.56542516 0.44523287
0.33791032 -0.56508446 0.44822207
0.3442179 -0.56371236 0.44488987
0.35113546 -0.56340152 0.44069681
-0.45561916 -0.55630213 0.44349575
-0.4444342 -0.55159032 0.44837543
-0.33711064 -0.55138439 0.44919968
-0.32417786 -0.55352902 0.44693163
-0.31600007 -0.55476642 0.44607598
-0.3039242 -0.55500245 0.44522053
-0.29609397 -0.55488247 0.44396538
-0.28658769 -0.55688959 0.44183853
-0.22148995 -0.55787814 0.44151664
-0.21712314 -0.55381995 0.44431424
0.33676112 -0.55438423 0.44816202
0.34453997 -0.55521429 0.44466573
0.3502987 -0.55825323 0.44134519
-0.44316015 -0.54529703 0.44496688
-0.43494251 -0.54414082 0.44774875
-0.42805156 -0.54029906 0.44770974
-0.36068425 -0.54121202 0.44877198
-0.3529492 -0.5442186 0.44780621
-0.34478503 -0.54482126 0.44570923
-0.33528048 -0.54481494 0.44294092
-0.32410184 -0.54645014 0.44143015
-0.31445387 -0.54870796 0.44180295
-0.30251935 -0.54915243 0.44144922
-0.29926082 -0.54785734 0.44002336
-0.21179211 -0.54600966 0.44399151
-0.20853166 -0.54210091 0.44486412
0.32496813 -0.54199433 0.44964245
0.33513549 -0.54437476 0.4468663
0.34597415 -0.54516506 0.44203794
0.35064989 -0.54910123 0.44012839
-0.44069892 -0.53992653 0.44138429
-0.43372566 -0.53787023 0.44238672
-0.4262051 -0.53542471 0.44326106
-0.41634098 -0.53432649 0.44491583
-0.40468889 -0.53422385 0.44613001
-0.39539993 -0.53297567 0.44437698
-0.38420323 -0.53404701 0.44471884
-0.37532648 -0.53400564 0.44412768
-0.36589304 -0.53633142 0.44539306
-0.35575467 -0.53838867 0.44351229
-0.34613332 -0.53961605 0.44111016
-0.20399186 -0.5361051 0.44454092
-0.19906671 -0.53205889 0.44732058
0.30846274 -0.53172982 0.44987023
0.31591031 -0.53453439 0.44895697
0.3257218 -0.53406632 0.4463695
0.33395502 -0.53548729 0.44419792
0.34357691 -0.53846931 0.44127312
-0.40608749 -0.52938241 0.44052431
-0.3971647 -0.52938807 0.44037414
-0.19582212 -0.52782404 0.44553411
-0.18739142 -0.52137291 0.44749328
0.30850586 -0.52976853 0.44957221
0.31553513 -0.52576661 0.44787163
0.32686865 -0.52493668 0.44330344
0.3307564 -0.52188331 0.44085312
-0.18300596 -0.51614428 0.44530466
-0.17678614 -0.51172739 0.44620621
0.31588352 -0.516397 0.44824034
0.32542968 -0.51438433 0.44352886
0.33166227 -0.51178139 0.44103786
-0.17516966 -0.50820047 0.44309342
-0.16544563 -0.50384945 0.44522569
-0.15704761 -0.50185311 0.44791403
0.32596621 -0.50501376 0.44847876
0.33276597 -0.50562572 0.44360209
-0.16200395 -0.49889907 0.44089928
-0.15367769 -0.49738869 0.44470781
-0.14584684 -0.49243724 0.44440725
-0.13903795 -0.49103057 0.44844437
0.33567289 -0.49800396 0.44740629
0.34402737 -0.49458963 0.44481257
0.35274231 -0.49094266 0.4414086
-0.14357334 -0.48957956 0.44111642
-0.13515051 -0.4878521 0.44328541
-0.12526444 -0.48575142 0.44428664
-0.11504548 -0.48331007 0.44457033
-0.10558514 -0.48244563 0.44785306
-0.095378764 -0.48166582 0.44672605
-0.084851444 -0.48016936 0.44765639
0.34843913 -0.48902103 0.44802776
0.35537517 -0.48569006 0.44549739
0.36293787 -0.48090601 0.44285131
-0.10052384 -0.4798494 0.44425228
-0.096575782 -0.47876912 0.44226384
-0.084499501 -0.47629955 0.44468641
-0.078972585 -0.47506943 0.44826755
0.3594436 -0.47878933 0.44980252
0.36533019 -0.47639167 0.44582555
0.37374216 -0.4713929 0.44353005
-0.080911115 -0.46241957 0.44018242
-0.076447055 -0.46416935 0.44553727
0.36878371 -0.46985424 0.44948155
0.37626341 -0.46546742 0.44647807
0.3822192 -0.46231401 0.44327891
-0.081039011 -0.45130861 0.44149375
-0.077810682 -0.45618001 0.44524398
0.38669741 -0.45538539 0.44412777
-0.081233174 -0.44754091 0.44166967
-0.077553831 -0.44481269 0.44733036
0.3886565 -0.4464452 0.44762823
0.39412099 -0.44487295 0.44284287
-0.081938624 -0.43514475 0.44191486
-0.077923708 -0.43453097 0.44777459
0.39640349 -0.43496114 0.44685689
0.4033137 -0.4341099 0.44209045
-0.081812292 -0.42373639 0.44257912
-0.078357287 -0.42455831 0.44762012
0.39851031 -0.42789248 0.44909284
0.40501887 -0.42325801 0.44713992
0.41378933 -0.42272544 0.4422276
-0.081463836 -0.41516176 0.44310009
-0.078083754 -0.41391736 0.44817412
0.40693903 -0.41740856 0.4489814
0.41435057 -0.41587651 0.44533998
0.42202321 -0.41373587 0.44089937
-0.081431262 -0.40581343 0.44351551
-0.078663729 -0.40376744 0.44787502
0.41574225 -0.40557835 0.44895065
0.42324609 -0.40511525 0.44413283
-0.081622876 -0.39582896 0.44387484
-0.079092279 -0.3954441 0.44782209
0.42622659 -0.39389288 0.44620302
0.43237606 -0.39264128 0.44053471
-0.082957484 -0.38489309 0.44299468
-0.079356536 -0.38513747 0.4484103
0.42748612 -0.38563824 0.44800857
0.43389899 -0.38306206 0.44250405
-0.081705496 -0.37585819 0.44572666
-0.079441749 -0.37907147 0.44864449
0.42852199 -0.37665936 0.44901976
0.43399209 -0.37481335 0.44449934
-0.084005162 -0.3651118 0.44434965
-0.079874225 -0.36833403 0.4489356
0.42910492 -0.36608931 0.44965747
0.43582934 -0.36462072 0.44426563
0.44038123 -0.36524227 0.44018191
-0.087341338 -0.35532585 0.44286314
0.42879462 -0.35101542 0.44967327
0.43526387 -0.35655344 0.44531959
0.44037899 -0.35556424 0.44121301
-0.091307953 -0.34352726 0.44230777
-0.087830812 -0.34484097 0.44712132
0.42732376 -0.34141815 0.449653
0.43605432 -0.34379673 0.44478589
0.44170678 -0.34500614 0.4406839
-0.092964582 -0.33509758 0.44480574
-0.088401325 -0.33945039 0.44919771
0.42752895 -0.33424437 0.44866672
0.43516868 -0.3341617 0.44437584
0.44090098 -0.33706555 0.44099575
-0.096522994 -0.3257359 0.44519043
0.42531198 -0.32554999 0.44864911
0.43406484 -0.32553503 0.44359207
-0.10102373 -0.31695578 0.44217727
-0.098509133 -0.31647411 0.44739243
0.42496529 -0.31410259 0.4470835
0.43303958 -0.31397042 0.44202134
-0.1030523 -0.30697623 0.44504404
0.41829082 -0.30492428 0.44931796
0.42284712 -0.30484983 0.44675335
0.43099222 -0.30582622 0.44170287
-0.11017079 -0.2907674 0.44133523
-0.10677899 -0.29432327 0.44605941
0.4194591 -0.29480663 0.44853246
0.4248929 -0.29616767 0.44485778
0.43087214 -0.29906461 0.44085422
-0.1117508 -0.28299737 0.44293317
-0.108967 -0.28320658 0.44826972
0.42484343 -0.28370905 0.44639185
0.43127573 -0.28772017 0.44075
-0.11361274 -0.2748605 0.44468233
0.42631486 -0.27713409 0.44734004
0.43465605 -0.27466661 0.44290453
0.44094023 -0.27039853 0.44064885
-0.12023994 -0.26375851 0.4403812
-0.11702565 -0.26407865 0.44618884
0.42699888 -0.26951218 0.44996244
0.43644467 -0.26475382 0.44686884
0.44305864 -0.26678315 0.44148746
-0.27224711 -0.25105324 0.44038561
-0.26512632 -0.25015038 0.44009191
-0.12246832 -0.25445372 0.44401503
-0.1190318 -0.2549634 0.44925332
0.43683377 -0.25794286 0.44952619
0.44412753 -0.25531867 0.44675928
0.45154691 -0.25408304 0.44229239
-0.36450794 -0.24146423 0.44020087
-0.35526171 -0.24185991 0.44114843
-0.34451833 -0.24207956 0.44107023
-0.33637676 -0.24067877 0.44045055
-0.28190693 -0.24601722 0.44028038
-0.27490407 -0.24442093 0.44126624
-0.26491269 -0.24482912 0.44121119
-0.25638849 -0.24210513 0.44081071
-0.13048494 -0.24089032 0.44172052
-0.12633325 -0.24637216 0.44425264
0.44701099 -0.24656288 0.44880158
0.45416564 -0.24524689 0.44445938
-0.43448007 -0.23044695 0.44014508
-0.42470491 -0.2315245 0.44082049
-0.41332075 -0.23163985 0.44063821
-0.40682834 -0.2314119 0.44031227
-0.37606749 -0.23191766 0.44041499
-0.36589283 -0.23398939 0.44211808
-0.35518235 -0.23542702 0.44355398
-0.34643283 -0.23543802 0.4442009
-0.33363241 -0.23424231 0.44321281
-0.3253969 -0.23398519 0.44076914
-0.28253302 -0.23646416 0.44091481
-0.27449402 -0.23445676 0.44260672
-0.26402655 -0.23537238 0.44297996
-0.25535774 -0.23458457 0.44244674
-0.24707492 -0.23379219 0.44067937
-0.13179113 -0.23541002 0.44364235
-0.12824157 -0.23824604 0.44759864
0.45681059 -0.23526399 0.44618526
0.4620268 -0.23523974 0.44261917
-0.44185412 -0.22255357 0.44080234
-0.43305308 -0.22263889 0.44302726
-0.42363727 -0.22459066 0.4436824
-0.41356283 -0.22533789 0.44373599
-0.40444076 -0.22458114 0.4436402
-0.39565662 -0.22485477 0.44240233
-0.38428292 -0.22470263 0.44174784
-0.37466931 -0.22250174 0.44363049
-0.36499307 -0.22521462 0.44502336
-0.35539296 -0.22506361 0.44716024
-0.34381294 -0.22675054 0.4477345
-0.33401352 -0.22465256 0.44756669
-0.32472309 -0.22541231 0.44413528
-0.31816515 -0.22506671 0.4411366
-0.28354985 -0.22409829 0.44113955
-0.27594057 -0.22493564 0.44304976
-0.26459259 -0.2249058 0.44435096
-0.25287458 -0.22552186 0.44397655
-0.24482483 -0.22541928 0.4420141
-0.23716402 -0.22192785 0.44068345
-0.13597791 -0.22403827 0.44434229
0.45730028 -0.22487259 0.44817096
0.46384668 -0.22399658 0.44414625
-0.44468096 -0.21477625 0.44205344
-0.43527529 -0.2161531 0.4445596
-0.42311621 -0.2143364 0.44749388
-0.41501471 -0.21610112 0.44768223
-0.40356025 -0.21606289 0.44778696
-0.39565837 -0.21565932 0.44676647
-0.38435128 -0.21417648 0.44599313
-0.37400585 -0.21490265 0.44607851
-0.36591056 -0.2129067 0.44837999
-0.35577422 -0.21936932 0.44888139
-0.33169588 -0.21805239 0.44945234
-0.32422414 -0.21431427 0.44743043
-0.314042 -0.21422766 0.44205415
-0.28228363 -0.21469817 0.4413636
-0.27549914 -0.21660632 0.44319201
-0.2644518 -0.21595444 0.44514504
-0.25373831 -0.21582055 0.4451763
-0.24569552 -0.21261452 0.44405809
-0.23583777 -0.21415007 0.44183746
-0.22912982 -0.21130162 0.44046587
-0.14089507 -0.21408738 0.4412246
-0.1372847 -0.21686502 0.44643429
0.45837915 -0.21473604 0.44914091
0.46623662 -0.21421927 0.4439159
0.47110409 -0.21529612 0.44006729
-0.45457798 -0.2046548 0.44073236
-0.44611555 -0.20488457 0.44359794
-0.43395743 -0.20396061 0.44784251
-0.42487833 -0.20895445 0.44885242
-0.39359304 -0.20956659 0.44962355
-0.38290709 -0.20796306 0.44888633
-0.37346002 -0.20705691 0.44892931
-0.32389125 -0.20600612 0.44926921
-0.3159965 -0.20361011 0.44570753
-0.3089478 -0.20343451 0.44127598
-0.28125176 -0.20563972 0.44034967
-0.27477235 -0.20393729 0.44190821
-0.2672025 -0.20402567 0.44373766
-0.25451571 -0.20537449 0.4450976
-0.24353492 -0.2041425 0.44366726
-0.23539832 -0.20559445 0.44231302
-0.22703524 -0.20396177 0.44073948
-0.14270201 -0.2043512 0.44335675
-0.1383549 -0.20857541 0.44947031
0.45933673 -0.20592669 0.4491697
0.46585399 -0.20470662 0.44479245
0.4710559 -0.20799552 0.44105935
-0.49350214 -0.19180883 0.4412609
-0.48394865 -0.19351019 0.44219917
-0.4739604 -0.19594096 0.44113311
-0.46443334 -0.19398685 0.44173032
-0.45471868 -0.19500104 0.44311711
-0.44390696 -0.19488201 0.44597346
-0.43687272 -0.19594097 0.44818327
-0.32085082 -0.19395663 0.44985929
-0.31346196 -0.19579567 0.44579986
-0.30675024 -0.19252294 0.44190931
-0.27134362 -0.19836509 0.44155028
-0.26499462 -0.19414286 0.44167742
-0.25504082 -0.19353376 0.44310787
-0.2443388 -0.19579329 0.44379672
-0.23633848 -0.19615358 0.4436945
-0.22458096 -0.19581719 0.44284484
-0.21331097 -0.193795 0.44216031
-0.20928955 -0.19261941 0.44102755
-0.14564353 -0.19322059 0.44436264
0.45920485 -0.19473986 0.44895345
0.46573472 -0.19399908 0.44472075
0.47090474 -0.19389173 0.44129112
-0.50416476 -0.18389913 0.44143179
-0.49523842 -0.1853223 0.44402879
-0.48452455 -0.184604 0.44658673
-0.47439811 -0.18628269 0.44572413
-0.46586046 -0.18507892 0.44523084
-0.45623749 -0.18408239 0.44567591
-0.4441905 -0.18537392 0.44701058
-0.43654436 -0.18750748 0.44933477
-0.31533742 -0.18469621 0.44864997
-0.30713335 -0.18469891 0.44393077
-0.26128638 -0.18775237 0.44052815
-0.25476995 -0.18508254 0.44148335
-0.24535753 -0.18535332 0.44322631
-0.23617461 -0.18679401 0.44499946
-0.22498004 -0.18509018 0.44685432
-0.215628 -0.18515441 0.44562492
-0.20637743 -0.18359087 0.44286987
-0.19975337 -0.1808885 0.4402152
-0.14708973 -0.18506192 0.44539252
0.45819092 -0.18443547 0.44879562
0.46410322 -0.18469633 0.44532481
-0.51267987 -0.17415804 0.44224942
-0.5037117 -0.1756977 0.44559816
-0.49435946 -0.1769637 0.44809493
-0.48668429 -0.17864031 0.44886789
-0.47348452 -0.17761105 0.44934407
-0.46260276 -0.17610936 0.44853863
-0.45628005 -0.17678893 0.44763643
-0.44570953 -0.17549506 0.44816989
-0.31280568 -0.17363152 0.44947794
-0.30645552 -0.17503354 0.44605687
-0.29765165 -0.17576952 0.44049376
-0.25235459 -0.17473306 0.44291997
-0.24525091 -0.17622001 0.44546017
-0.23499605 -0.17583182 0.44859618
-0.22475398 -0.17596121 0.44930989
-0.21526892 -0.17408141 0.44823879
-0.20507985 -0.17407197 0.44501418
-0.1966275 -0.17187636 0.44073144
-0.15085983 -0.17498653 0.44159639
-0.14835945 -0.17625816 0.44576988
0.45634502 -0.17373222 0.44797775
0.46440732 -0.17307746 0.44347599
-0.52214515 -0.16587821 0.44106421
-0.51442194 -0.16524525 0.4450573
-0.50571662 -0.16652513 0.44851637
-0.44662106 -0.16659577 0.44939828
-0.3065187 -0.16695337 0.44879934
-0.2973789 -0.16915253 0.44273543
-0.28664297 -0.16122249 0.44102663
-0.25538707 -0.16510189 0.44303468
-0.24498881 -0.1654909 0.44771117
-0.23839489 -0.1679877 0.44943503
-0.21385519 -0.16723385 0.44936019
-0.20588633 -0.16463442 0.44657385
-0.19852605 -0.16478097 0.44247222
-0.15092765 -0.16485022 0.4437494
-0.14877255 -0.16417789 0.4479754
0.44896206 -0.16452348 0.44955954
0.45404065 -0.16552822 0.44743586
0.4665556 -0.16648014 0.44131443
-0.53079218 -0.15300839 0.4408029
-0.52419353 -0.15410815 0.44406256
-0.51530641 -0.15524314 0.44812325
-0.30092034 -0.15694529 0.44968551
-0.29381764 -0.15540259 0.4458296
-0.28457248 -0.15415831 0.44266745
-0.27851436 -0.15152295 0.44069406
-0.2619552 -0.15362644 0.44044513
-0.25509092 -0.15418188 0.44445392
-0.24501148 -0.15633407 0.44856191
-0.20432445 -0.15509982 0.44687727
-0.19610825 -0.15559894 0.4417327
-0.15207389 -0.15438083 0.44380626
-0.14977883 -0.15300395 0.44853687
0.44827062 -0.1562378 0.44774741
0.45591331 -0.156138 0.44427145
0.46338147 -0.15181862 0.4408479
-0.53375757 -0.14307597 0.44207096
-0.52460849 -0.14400026 0.44678074
-0.5176096 -0.14766917 0.44914052
-0.2928603 -0.14496024 0.44796479
-0.28546754 -0.14354877 0.44589069
-0.27541623 -0.14480077 0.44140971
-0.26232025 -0.14326328 0.44052842
-0.2536853 -0.14393319 0.44528159
-0.24525207 -0.14386734 0.44875038
-0.20411022 -0.14503507 0.44736561
-0.1958138 -0.14463712 0.44244412
-0.15405628 -0.14380637 0.44322661
-0.14952773 -0.14405073 0.44953635
0.4450115 -0.14494975 0.44883201
0.45471975 -0.14475934 0.44386575
0.46292555 -0.1469917 0.44084221
-0.53459889 -0.13735114 0.44289353
-0.5258913 -0.13576615 0.44816634
-0.29281867 -0.13756797 0.44943425
-0.28535709 -0.13574766 0.44641852
-0.274239 -0.13521285 0.44133323
-0.26502916 -0.13301951 0.44046012
-0.25577968 -0.13541742 0.44390044
-0.24524277 -0.13488756 0.44837427
-0.21079089 -0.13558114 0.449541
-0.20699398 -0.1342351 0.44751459
-0.19438727 -0.13371751 0.44127068
-0.16173661 -0.13393185 0.44038194
-0.1542812 -0.13382855 0.4457964
0.44726619 -0.13429391 0.44721016
0.45470467 -0.13365978 0.4439958
0.46452782 -0.13395058 0.44125092
-0.54127342 -0.1258193 0.44049326
-0.53231949 -0.12428052 0.44636011
-0.52775693 -0.12379117 0.44896537
-0.290564 -0.12622495 0.44959965
-0.28513989 -0.12487011 0.4461816
-0.27509433 -0.12685713 0.44114223
-0.26104993 -0.12257861 0.44023204
-0.25501543 -0.12350383 0.4431617
-0.24482974 -0.12522966 0.44769162
-0.23998989 -0.12804778 0.44986501
-0.21507767 -0.12282654 0.44811943
-0.20530121 -0.12746862 0.44552132
-0.19626594 -0.12575971 0.44286385
-0.18526384 -0.12351982 0.44176236
-0.17417023 -0.12276372 0.44324994
-0.1667206 -0.12631458 0.44277412
-0.15425912 -0.12586451 0.44865629
0.44694924 -0.12659992 0.44767359
0.45520368 -0.12602431 0.44447377
0.46303338 -0.12499334 0.44240552
0.47028312 -0.12472731 0.44078022
-0.54234517 -0.11566959 0.44027695
-0.53493267 -0.11494778 0.44523001
-0.52758634 -0.11558803 0.44953999
-0.29175863 -0.1128514 0.44814596
-0.28576505 -0.11423586 0.44462293
-0.2790359 -0.11462012 0.44095102
-0.26072302 -0.11389485 0.44022548
-0.25562254 -0.11387841 0.44224253
-0.24518396 -0.11406294 0.44615504
-0.23786342 -0.11416937 0.44894153
-0.22158056 -0.11209264 0.44854489
-0.21507378 -0.11544625 0.44578305
-0.20452219 -0.11563272 0.44411975
-0.19497417 -0.11467074 0.44351476
-0.18568633 -0.11680888 0.44431198
-0.17659518 -0.11529825 0.44747868
-0.16154726 -0.11987738 0.44916779
-0.15939525 -0.11978139 0.44990039
0.4482801 -0.11474863 0.44779494
0.45435628 -0.11577933 0.44536766
0.46549001 -0.11459758 0.44254202
0.4713771 -0.11144199 0.44129145
-0.53633249 -0.10513231 0.44348058
-0.52715105 -0.10319474 0.44910467
-0.29520628 -0.10469723 0.44764388
-0.28515574 -0.10540327 0.44251165
-0.26123434 -0.10115798 0.44001237
-0.25278634 -0.10488422 0.44243506
-0.24454908 -0.10360253 0.44552779
-0.23443154 -0.10496651 0.44909653
-0.22455962 -0.10556475 0.44833228
-0.21518573 -0.10423282 0.44611266
-0.20422903 -0.10490587 0.44582483
-0.19477935 -0.10502378 0.44695082
-0.18715096 -0.10875529 0.44734967
0.44781065 -0.10590038 0.44821596
0.45355675 -0.1044381 0.44628257
0.46503675 -0.10448235 0.44343543
0.47213164 -0.10445631 0.4412913
-0.53383547 -0.09541297 0.44332319
-0.52667481 -0.094574802 0.44759125
-0.30293003 -0.094094247 0.4482449
-0.29502761 -0.0944601 0.44451439
-0.2849198 -0.095550805 0.44129536
-0.27687061 -0.094307438 0.44039237
-0.26995802 -0.092928953 0.44011408
-0.25527957 -0.09694948 0.44085276
-0.24506797 -0.095248722 0.44464055
-0.23470627 -0.094630793 0.44824573
-0.22566129 -0.094905511 0.44888216
-0.21497943 -0.095496789 0.44821945
-0.20514324 -0.096456952 0.44817641
-0.1982289 -0.097778119 0.4490498
0.44729227 -0.09482868 0.4490388
0.45438588 -0.09463273 0.44658491
0.46412599 -0.094810538 0.44322908
0.4726527 -0.09735997 0.44021299
-0.53221303 -0.084747016 0.44167688
-0.52464348 -0.085274301 0.44643319
-0.51919556 -0.084287904 0.44953069
-0.3123208 -0.08303421 0.44936943
-0.30442694 -0.085847542 0.44675526
-0.29477704 -0.084741026 0.44354662
-0.28569964 -0.085139535 0.4416019
-0.27621001 -0.08267878 0.44046128
-0.25317541 -0.085286565 0.44057852
-0.24399939 -0.085144743 0.44433719
-0.23499583 -0.084967248 0.44754285
-0.22510998 -0.087092534 0.44925517
-0.21587849 -0.088072032 0.44978374
0.44804406 -0.084739283 0.44905758
0.45441231 -0.083215319 0.44568935
0.46367094 -0.084778242 0.44202381
-0.53130245 -0.079294875 0.44058472
-0.52527654 -0.076257572 0.4433347
-0.51684982 -0.074813202 0.44796127
-0.31362569 -0.074866377 0.44869322
-0.3065784 -0.074388735 0.44674295
-0.29629007 -0.075918302 0.44468933
-0.28433219 -0.075562648 0.44259584
-0.27565739 -0.075535588 0.44070211
-0.25152802 -0.075589269 0.44057786
-0.24405691 -0.076120205 0.44361281
-0.23452696 -0.076993138 0.44756573
-0.22713971 -0.076533042 0.44953713
0.447492 -0.074693032 0.44834772
0.45535839 -0.074757904 0.44380337
0.46131456 -0.07709261 0.44109797
-0.52315986 -0.066903621 0.44162115
-0.51454371 -0.065645143 0.44567087
-0.50692457 -0.064935185 0.44920999
-0.31202683 -0.0644053 0.44877452
-0.30370346 -0.065463804 0.44707829
-0.29516682 -0.065796964 0.44488803
-0.28509456 -0.06577269 0.44218376
-0.27816859 -0.065214321 0.44046035
-0.25077718 -0.065604642 0.4401696
-0.24565606 -0.064009279 0.44211882
-0.23372437 -0.065842994 0.44759393
-0.22798458 -0.065229498 0.44981772
0.44566187 -0.063626632 0.44778454
0.45395237 -0.065599844 0.44267309
-0.51676166 -0.057543013 0.44161484
-0.50424886 -0.055128682 0.446513
-0.49713612 -0.052393422 0.44884443
-0.31253037 -0.056669798 0.44924286
-0.30655295 -0.054940119 0.4481782
-0.29589325 -0.054639425 0.44533366
-0.2840558 -0.05512413 0.44118133
-0.24670975 -0.055805784 0.44083011
-0.23459046 -0.056130148 0.44654188
-0.22933328 -0.052642416 0.44853365
0.43782276 -0.051906765 0.44950834
0.44516322 -0.055282839 0.44573158
0.45125848 -0.055569082 0.44147021
-0.51264572 -0.049813125 0.44059303
-0.50369328 -0.044630259 0.44268596
-0.49497643 -0.044964749 0.44695422
-0.48870814 -0.042080052 0.44856793
-0.31097445 -0.044358756 0.44935632
-0.30479738 -0.044936489 0.44767734
-0.29377362 -0.045373 0.44361323
-0.2862187 -0.0446149 0.44129345
-0.24297684 -0.046062827 0.44102991
-0.2351764 -0.04637906 0.44469389
-0.22868402 -0.046178065 0.44764614
0.43682936 -0.045023594 0.44754717
0.4439705 -0.043739595 0.44260448
-0.50226176 -0.037592746 0.44098753
-0.49500194 -0.034848429 0.44324747
-0.48499128 -0.034757182 0.44708273
-0.47785464 -0.0315677 0.44854656
-0.39919779 -0.030375909 0.44982779
-0.38492572 -0.030840943 0.44978383
-0.31216094 -0.032849323 0.44861206
-0.30506316 -0.035000775 0.44656372
-0.29471168 -0.034994461 0.44310561
-0.28508317 -0.034445375 0.44080937
-0.24024224 -0.036134377 0.44013292
-0.23383781 -0.034779843 0.44239673
-0.22485703 -0.03448543 0.4460066
-0.21702778 -0.034444686 0.44874853
0.4280349 -0.034200627 0.44745773
0.43588835 -0.035284255 0.44380367
0.44137627 -0.035672717 0.44098473
-0.49137473 -0.026027428 0.44132832
-0.48427776 -0.026223097 0.44346237
-0.47479993 -0.025236042 0.44608089
-0.4659555 -0.024269227 0.44783595
-0.4545705 -0.021688385 0.44798264
-0.4449563 -0.022661533 0.44886273
-0.43147695 -0.022057194 0.44833583
-0.42649198 -0.022996571 0.44846344
-0.41461387 -0.024512457 0.44860169
-0.40328065 -0.026751833 0.44883499
-0.39485988 -0.026328446 0.44855747
-0.38461164 -0.024905723 0.44818535
-0.37556136 -0.024565097 0.44870219
-0.36899826 -0.020680945 0.44958112
-0.31465241 -0.023763057 0.44754124
-0.30377942 -0.023909129 0.4445048
-0.2936506 -0.024108093 0.44232529
-0.28738591 -0.025805913 0.44083795
-0.23221573 -0.026593292 0.44067779
-0.22613461 -0.025289368 0.44238234
-0.21585129 -0.024695292 0.44573477
-0.20497096 -0.024724223 0.44870988
0.41841888 -0.024131721 0.44907886
0.42550239 -0.025240427 0.44432926
0.43357295 -0.027824033 0.44136316
-0.48126876 -0.01901146 0.44094658
-0.4726865 -0.013920747 0.44165918
-0.46619976 -0.014782947 0.44342148
-0.45529234 -0.014913275 0.4449912
-0.44475335 -0.014899977 0.44526738
-0.43637365 -0.014981508 0.4454073
-0.42621267 -0.014655583 0.44509375
-0.41417694 -0.014432913 0.44534364
-0.40522233 -0.014745524 0.44614181
-0.39521286 -0.016112819 0.44641653
-0.38588053 -0.017033819 0.44606537
-0.37592006 -0.014049059 0.44589567
-0.36504576 -0.012302415 0.44874313
-0.32459626 -0.012410099 0.44862109
-0.31544802 -0.014817686 0.44538766
-0.30587581 -0.01543347 0.44326916
-0.29496196 -0.014700476 0.44163427
-0.28775623 -0.015841374 0.44034258
-0.22131652 -0.014319067 0.44070187
-0.21522543 -0.014718902 0.44275162
-0.20444712 -0.015104261 0.44545367
-0.19696636 -0.013607687 0.44734833
-0.12536204 -0.014670152 0.44958028
0.4150089 -0.013869192 0.44590718
0.42355114 -0.018971546 0.44214308
-0.46608111 -0.0063965195 0.44111681
-0.45446515 -0.0039720526 0.44191787
-0.44406497 -0.005220151 0.44224423
-0.43367851 -0.0044056769 0.44306961
-0.42530534 -0.0026924836 0.44364101
-0.41278386 -0.0060095098 0.44547617
-0.40441069 -0.0054356083 0.44626531
-0.39361072 -0.0046797404 0.44396093
-0.38560784 -0.0047093388 0.44239035
-0.37467954 -0.0055210288 0.44352409
-0.36356452 -0.0064458158 0.44748008
-0.35402936 -0.0043249563 0.44888288
-0.34279031 -0.0019703789 0.44864854
-0.3364687 -0.0027600115 0.44865251
-0.32406512 -0.0043846508 0.44554561
-0.31535271 -0.003643275 0.44196862
-0.30486551 -0.0058303662 0.44093418
-0.29494417 -0.0068594883 0.44041285
-0.21564935 -0.0066781836 0.44079155
-0.20678745 -0.0045447373 0.44165966
-0.19439983 -0.0049799527 0.44497222
-0.18680152 -0.0039130636 0.44785732
-0.14059736 -0.0024002099 0.44969597
-0.13449678 -0.0031502247 0.44849858
-0.12330545 -0.0043140478 0.44951922
0.40640566 -0.0036378105 0.44771808
0.41400707 -0.0061680023 0.44215974
-0.46270037 0.0034374679 0.44036511
-0.45512599 0.0033661604 0.44074142
-0.44396731 0.0063115852 0.44136885
-0.43442446 0.006197325 0.44250888
-0.42520341 0.0062196152 0.4436397
-0.41447198 0.0047304551 0.44513682
-0.40619314 0.0037798965 0.44552204
-0.39524853 0.0060442383 0.44261348
-0.38655293 0.0042452021 0.44055247
-0.37394446 0.0025286716 0.44048083
-0.36528876 0.0050301198 0.44201353
-0.35439786 0.0056459699 0.44444147
-0.34521616 0.0044217366 0.44599873
-0.33389011 0.0047291834 0.44494727
-0.3256444 0.0034388981 0.44268107
-0.31777152 0.00061856763 0.44093481
-0.19284548 0.0034733273 0.44167972
-0.18523081 0.0046617077 0.44452915
-0.17610733 0.0068018283 0.44675064
-0.16804306 0.0062122308 0.44917887
-0.15637948 0.0083773034 0.44885883
-0.14434408 0.0036750536 0.44865125
-0.13620402 0.0052760765 0.44679871
-0.12651534 0.0049843038 0.44832465
0.39722955 0.0083374158 0.4482567
0.40439978 0.0056123044 0.44379452
-0.44190383 0.016193813 0.44031182
-0.43540218 0.015227334 0.44143489
-0.42660037 0.014634188 0.44259837
-0.41321984 0.015040766 0.44359681
-0.4043844 0.015052339 0.44297898
-0.39699551 0.013987902 0.44144592
-0.35366291 0.010715494 0.44222873
-0.34277534 0.013986958 0.44145909
-0.33724037 0.012332194 0.44179004
-0.18232657 0.014113285 0.44072258
-0.17589298 0.014146344 0.44273567
-0.1647213 0.015281557 0.4449802
-0.15497239 0.015593045 0.44534999
-0.14606859 0.01465035 0.4450078
-0.13552605 0.014473615 0.4447746
-0.12639949 0.015108949 0.44685048
-0.11841153 0.017628543 0.44870564
0.38869846 0.019208858 0.44791293
0.39505294 0.014334993 0.44644254
0.40234384 0.014013297 0.44088578
-0.43531951 0.021300457 0.44035602
-0.42398536 0.023097008 0.44108504
-0.41676173 0.023884524 0.44106746
-0.40738404 0.021723481 0.44135699
-0.17148219 0.020338748 0.44031268
-0.16523431 0.022309579 0.44080821
-0.15671961 0.022434259 0.44183689
-0.14512515 0.022853032 0.44133139
-0.13433722 0.024312114 0.44189107
-0.12560177 0.024262857 0.4449003
-0.11583935 0.026669774 0.44645238
-0.10686846 0.025982793 0.44860712
-0.044851977 0.026681148 0.44968057
-0.035606891 0.026593184 0.44948182
-0.028778434 0.028383944 0.4499343
0.0080452003 0.028846402 0.44941956
0.013733622 0.028272333 0.44921741
0.379365 0.026326569 0.44907621
0.38605499 0.02588634 0.4455224
0.39276859 0.023864934 0.44248471
-0.13049886 0.030052224 0.44071746
-0.12444105 0.033238512 0.44133523
-0.11392681 0.035714511 0.44231412
-0.10583847 0.034101088 0.44531852
-0.094797879 0.034249656 0.44843304
-0.086328961 0.036677592 0.44883654
-0.076315977 0.039353717 0.44939354
-0.061332133 0.038084079 0.44945833
-0.055902157 0.037241928 0.44856289
-0.045709636 0.035408847 0.44778526
-0.035514709 0.03592658 0.44834802
-0.026384473 0.037608463 0.4494665
-0.015418251 0.037211236 0.4493905
-0.0054810806 0.036013346 0.44866484
0.0060170074 0.035918262 0.44767514
0.013294538 0.034987424 0.44871414
0.36833516 0.038510915 0.44746378
0.3776595 0.034634106 0.4448491
0.38416472 0.034837849 0.44112301
-0.10317597 0.043450478 0.44188675
-0.095719665 0.044682682 0.4435443
-0.084762089 0.046134498 0.44488624
-0.075563818 0.045877945 0.44650126
-0.065442204 0.044888735 0.44701174
-0.053514015 0.045815796 0.44527721
-0.044395979 0.045232374 0.44548202
-0.034734447 0.045789767 0.44634858
-0.024770807 0.045555893 0.44720998
-0.014399311 0.04594342 0.44572708
-0.0044835298 0.047225907 0.44401523
0.0042034793 0.044387989 0.44661677
0.014863501 0.044144694 0.44891605
0.025894985 0.047687709 0.44934294
0.034936961 0.046021029 0.44945699
0.046527773 0.04578324 0.44983515
0.051669218 0.045926128 0.44985038
0.168909 0.047367364 0.44874981
0.17665091 0.044966072 0.44814509
0.18426426 0.044552267 0.44751835
0.19477214 0.04720208 0.44607171
0.20466408 0.046490401 0.44848347
0.21353605 0.049417723 0.44864213
0.35501695 0.047274411 0.44833446
0.36425576 0.045241486 0.44499284
0.37502834 0.04221224 0.44143093
-0.094202243 0.051492471 0.4406969
-0.085028112 0.053476226 0.4413701
-0.075089522 0.053957392 0.44297576
-0.064498253 0.054813568 0.44279519
-0.056021564 0.054271866 0.44277698
-0.045029964 0.055510901 0.44266334
-0.035419419 0.055344164 0.44377884
-0.025119836 0.055124018 0.44386002
-0.016362874 0.055146094 0.44168311
-0.0054827943 0.055192955 0.442056
0.0041704359 0.055662137 0.44512123
0.01333565 0.0549477 0.44779626
0.024551127 0.055834096 0.4479872
0.035600636 0.054843269 0.44830629
0.044974469 0.054683946 0.44905511
0.053595945 0.056729164 0.44977272
0.15753728 0.055981345 0.4490388
0.16548577 0.053762585 0.44708824
0.17568803 0.055490606 0.44364962
0.18319088 0.054782871 0.44230011
0.19438416 0.055954039 0.44126475
0.20541203 0.054048009 0.44187856
0.21606627 0.053846743 0.44474375
0.22495833 0.055033229 0.44659472
0.2348665 0.057828303 0.44817767
0.3279281 0.059658863 0.44925606
0.33426434 0.057094842 0.44962645
0.34471223 0.055561643 0.4465923
0.35433671 0.055537131 0.44235775
0.36099401 0.050665081 0.44282827
-0.065070614 0.061156265 0.44044009
-0.05461365 0.061008193 0.44036505
-0.044720985 0.062907889 0.44030184
-0.038844004 0.065870091 0.44012779
-0.025812509 0.061938018 0.44117442
-0.0050623706 0.064554006 0.44076523
