# .PCD v0.7 - Point Cloud Data file format
VERSION 0.7
FIELDS x y z
SIZE 4 4 4
TYPE F F F
COUNT 1 1 1
WIDTH 1379
HEIGHT 1
VIEWPOINT 0 0 0 1 0 0 0
POINTS 1379
DATA ascii
-0.36424357 0.022821615 -0.25525361
-0.35342571 0.020870114 -0.25453171
-0.34748077 0.020226888 -0.25738847
0.34686676 0.020193215 -0.25793296
0.35405758 0.021211552 -0.25629881
0.36502385 0.022949137 -0.25520584
0.37548369 0.025215188 -0.25542477
0.38408229 0.028159132 -0.25392142
-0.40232188 0.036596261 -0.25208455
-0.3937597 0.032543134 -0.25360093
-0.38852262 0.031381506 -0.25716257
0.38673604 0.03147921 -0.25975934
0.39423117 0.033055473 -0.25374556
0.40166533 0.036856126 -0.25333285
-0.40310794 0.045206297 -0.25632364
-0.3988423 0.040159851 -0.25889683
0.39884058 0.040649287 -0.25916076
0.4047206 0.04526319 -0.25408036
-0.41366747 0.056749068 -0.25441062
-0.40859935 0.052464578 -0.25585479
0.40677184 0.052437924 -0.25819907
0.41378415 0.057039835 -0.2546078
-0.4242104 0.067214154 -0.25574535
-0.41868097 0.063541159 -0.25639841
0.4188298 0.062431704 -0.25460282
0.42454839 0.066685684 -0.25427321
-0.44225928 0.079707101 -0.25487098
-0.43540987 0.074314162 -0.25429875
-0.42767978 0.070573941 -0.2577956
0.42970115 0.07032159 -0.25467297
0.43521771 0.074540026 -0.25516182
0.44106919 0.07898622 -0.25549993
-0.45299825 0.087788559 -0.25402328
-0.44564241 0.08255817 -0.25553748
0.44542331 0.082295403 -0.2552726
0.45309061 0.08797811 -0.25435209
-0.46358082 0.097062141 -0.25586677
-0.4568378 0.091688797 -0.25637537
0.45706972 0.091818482 -0.25619486
0.46339312 0.09640079 -0.25438288
-0.4808135 0.10976974 -0.25157112
-0.47352135 0.10471413 -0.25432932
-0.46853471 0.10019252 -0.25310367
0.468288 0.10053353 -0.25469255
0.47539207 0.10639945 -0.2547558
0.48039889 0.10938583 -0.2514447
-0.49211201 0.11899836 -0.25137761
-0.48568186 0.11489086 -0.25483418
-0.4793916 0.11070925 -0.25773787
0.47955593 0.11026092 -0.25603044
0.48415485 0.11371509 -0.25506815
0.49165887 0.11889561 -0.25216556
-0.50196481 0.12869486 -0.25201643
-0.49552709 0.12330574 -0.25498652
0.49579865 0.12397043 -0.25588685
0.50090051 0.12803975 -0.25309217
-0.51175141 0.13884676 -0.25143021
-0.50545412 0.1342281 -0.25613371
0.50540739 0.13365428 -0.25494534
0.51097655 0.13909391 -0.25384867
-0.52051127 0.14775378 -0.2504988
-0.51623988 0.14572279 -0.2561805
0.51682085 0.14585012 -0.2550675
0.52083653 0.14936508 -0.25335583
-0.53101611 0.15933463 -0.25141415
-0.5246172 0.15427545 -0.25536767
0.51980799 0.15091011 -0.25932306
0.52533287 0.1553393 -0.25604859
0.530891 0.15895282 -0.25084999
-0.53477305 0.16505118 -0.2548413
-0.52943897 0.16024509 -0.2572659
0.52941477 0.16045158 -0.25778952
0.53472471 0.16534981 -0.25546959
-0.54131943 0.17445964 -0.25408426
-0.53905123 0.17315133 -0.25770751
0.53878438 0.17217425 -0.2569814
0.54203439 0.17629556 -0.25493661
-0.55101711 0.18913712 -0.25131428
-0.54690886 0.18445994 -0.2546455
0.54729158 0.18526341 -0.25485158
0.55096847 0.18854904 -0.25060952
-0.55447894 0.19693261 -0.25390524
-0.54913449 0.1906397 -0.25794679
0.55344146 0.19551066 -0.2544108
-0.56121773 0.20838159 -0.25373206
-0.55724984 0.20337154 -0.25625852
0.55767679 0.2042955 -0.25652677
0.5611828 0.2072558 -0.25223994
-0.56429148 0.21406929 -0.25430512
0.5643543 0.21478012 -0.25514939
-0.57077098 0.22793248 -0.2518701
-0.568461 0.22563843 -0.2563611
0.56805879 0.22530876 -0.25702554
0.5707373 0.22491126 -0.25054768
-0.57182956 0.23706958 -0.25356466
-0.56871778 0.23256874 -0.25896013
0.56867015 0.23286027 -0.25920913
0.57036597 0.23559378 -0.25639907
-0.57307202 0.24622345 -0.25482494
0.57345533 0.24305363 -0.25243074
-0.5746491 0.25425851 -0.25476101
0.57456571 0.25476709 -0.25519663
-0.57621151 0.26547092 -0.25620681
0.57652485 0.26473361 -0.2551105
-0.58108103 0.27911222 -0.25082546
-0.57816917 0.27413979 -0.25552142
0.57890135 0.27480036 -0.25406659
0.58037329 0.27819809 -0.25210336
-0.58157128 0.28584585 -0.25255331
-0.57923281 0.28365448 -0.25737876
0.57902485 0.28432143 -0.25768423
0.58157426 0.28624827 -0.25234193
-0.58095539 0.29363829 -0.25343218
-0.57903874 0.29695007 -0.25731152
0.57863879 0.29458237 -0.25879598
0.58088875 0.29539174 -0.25320598
-0.58073413 0.30428401 -0.25161576
-0.57909763 0.30681372 -0.25499383
0.57888651 0.30552122 -0.25578719
0.58043289 0.30690715 -0.25176206
-0.58027458 0.31312326 -0.25077114
-0.57787132 0.31620601 -0.25587133
0.57765979 0.31558749 -0.25651723
0.5800665 0.31305623 -0.25128683
-0.57765478 0.32464767 -0.25452995
0.57699281 0.32486916 -0.25607389
-0.57622725 0.33536202 -0.25559992
0.57633603 0.33410493 -0.25561607
-0.57575881 0.34471986 -0.25466233
0.57572436 0.34476313 -0.25473607
-0.57508159 0.35492879 -0.25403911
0.57444406 0.35448566 -0.25567052
-0.573291 0.36586627 -0.25410458
0.57307184 0.36485931 -0.25520617
-0.57210612 0.37386397 -0.25228637
-0.5690251 0.37671852 -0.25803062
0.56923062 0.37847424 -0.2565113
0.57147497 0.37418666 -0.25361586
-0.57045758 0.38313249 -0.25084168
-0.56802511 0.38604012 -0.25499496
0.56868494 0.3853761 -0.25379503
-0.56582403 0.39496428 -0.25507995
0.5656364 0.39591795 -0.25497422
-0.56285661 0.40530571 -0.25618115
0.56363952 0.40474424 -0.25462523
-0.56172764 0.41428608 -0.25365454
-0.5592798 0.41715705 -0.25786644
0.55901569 0.41678232 -0.25872001
0.56151313 0.4151516 -0.25366506
-0.56010878 0.42685202 -0.25021365
-0.55767632 0.42642331 -0.25631437
0.55840635 0.42497444 -0.255404
0.56084991 0.42317379 -0.25057787
-0.55621934 0.43452224 -0.25502831
0.55620503 0.43515733 -0.25472501
-0.5525673 0.44581652 -0.25513834
0.54955453 0.44875836 -0.25987697
0.55210865 0.4441424 -0.25766748
-0.55135489 0.45246792 -0.25238645
-0.54819036 0.45604211 -0.25695229
0.54827529 0.45603654 -0.25675163
0.55177349 0.45220628 -0.25160167
-0.54612088 0.46652541 -0.25299686
0.54568434 0.46469176 -0.25560749
-0.54359156 0.47361493 -0.2530393
-0.53914642 0.4788425 -0.25927618
0.54265809 0.47466984 -0.25438365
-0.54144472 0.48245481 -0.25067028
-0.53845191 0.48519969 -0.25552961
0.53834254 0.48520851 -0.25578338
0.5411554 0.48180628 -0.2519168
-0.53518206 0.49487367 -0.25515071
0.53514749 0.49555886 -0.2546486
-0.53215903 0.50496936 -0.25381887
0.52899414 0.50782788 -0.25899413
0.53170812 0.50488943 -0.25497013
-0.52742732 0.51560289 -0.25611097
0.52805525 0.51596683 -0.25429443
0.53008199 0.51302671 -0.2519474
-0.52409035 0.52432555 -0.25543082
0.52418327 0.5244121 -0.25511616
-0.52115357 0.53190082 -0.25459841
-0.51824427 0.53600246 -0.25732085
0.51897013 0.53537673 -0.25622696
0.52077961 0.53435993 -0.25293452
-0.51507396 0.54505807 -0.25550732
0.51490837 0.54425699 -0.25674057
-0.51126552 0.55364758 -0.25571442
-0.50862932 0.55736691 -0.25817847
0.50887895 0.55652922 -0.25845113
0.51158851 0.55479765 -0.25373903
-0.5068413 0.56567836 -0.25381583
0.50626415 0.56479627 -0.25612336
-0.50250471 0.57430595 -0.25525349
-0.49868804 0.57956827 -0.25894848
0.49949548 0.57886082 -0.25774384
0.50292575 0.57505965 -0.25345528
-0.50024188 0.58327949 -0.25134289
-0.49765342 0.5853411 -0.25542006
0.49795166 0.58489776 -0.25516474
-0.49368453 0.59511286 -0.25476927
0.49275577 0.59669018 -0.2553674
-0.49011728 0.60163015 -0.25626472
-0.48786229 0.60533607 -0.25737566
0.48825085 0.60491896 -0.25692657
0.49128813 0.60316628 -0.25166065
-0.48436359 0.61550778 -0.2539531
0.48587775 0.61299759 -0.2532329
-0.48128289 0.62345421 -0.25211492
-0.47801366 0.62654984 -0.25637552
0.47831303 0.62546283 -0.25692081
0.48194394 0.62075961 -0.25366142
-0.47418249 0.63549507 -0.25518006
0.47371259 0.63498193 -0.25690776
-0.4707289 0.64188612 -0.25604883
-0.46794882 0.64742547 -0.25628895
0.46804678 0.64614987 -0.25753814
0.47127652 0.64354587 -0.25280052
-0.46425369 0.65551937 -0.25575709
0.46598637 0.65344739 -0.2540012
-0.46129534 0.66367304 -0.25338331
-0.45820606 0.66668087 -0.2573131
0.45822841 0.6664362 -0.25754431
0.46235141 0.66241336 -0.25230953
-0.45408148 0.67582703 -0.25658956
0.4557738 0.67460495 -0.25394168
-0.45237219 0.68063974 -0.2551001
-0.44806343 0.68801296 -0.25653297
0.44921678 0.68729454 -0.25463697
0.4519254 0.68274212 -0.25366148
-0.44483846 0.6960392 -0.25445282
0.44486809 0.69604248 -0.25439745
-0.441668 0.70279098 -0.25384128
-0.43744937 0.70723993 -0.25771806
0.43833348 0.70693511 -0.25613138
0.44210181 0.70418823 -0.25108829
-0.43457985 0.71527338 -0.25472721
0.43458787 0.71544892 -0.25465792
-0.43163595 0.72271264 -0.25321859
-0.42801663 0.72367603 -0.25753507
0.42761156 0.72597963 -0.25628456
0.43155998 0.72254127 -0.2533603
-0.42373341 0.73384941 -0.25525615
-0.41860282 0.73789203 -0.25881016
0.41915059 0.73758239 -0.25833687
0.42264292 0.73554844 -0.2553637
-0.42083332 0.74324942 -0.25177494
-0.4176212 0.74450153 -0.25498676
0.41624007 0.74601543 -0.25561544
0.42143002 0.74175262 -0.2521539
-0.41352695 0.75366288 -0.25324288
-0.40847185 0.75561303 -0.25831327
-0.37239808 0.75507009 -0.25229606
-0.3652322 0.7515285 -0.25745478
-0.35491291 0.75050616 -0.25499475
-0.34356633 0.75213826 -0.2545968
-0.33518901 0.757195 -0.2558797
0.33452085 0.7576372 -0.25600952
0.3442634 0.75230563 -0.25453591
0.35506317 0.75051284 -0.25448507
0.36520123 0.75298089 -0.25576714
0.37200677 0.75226527 -0.25281253
0.40792117 0.75708294 -0.25789574
0.41258833 0.7552278 -0.2532565
-0.41003004 0.76338732 -0.25028762
-0.40697619 0.762927 -0.2545357
-0.39982894 0.76825672 -0.25922966
-0.37020668 0.76013023 -0.25182772
-0.36519471 0.76434219 -0.25561738
-0.33158183 0.76098806 -0.25422993
-0.32543799 0.76510727 -0.25528237
-0.31803453 0.76877934 -0.25865445
0.31818488 0.76836681 -0.25917196
0.32598895 0.76496565 -0.25482905
0.33198476 0.76161301 -0.25266096
0.36461028 0.76529014 -0.25580159
0.37015563 0.76138592 -0.25107023
0.39990109 0.76815075 -0.25924164
0.40586254 0.76492959 -0.25429672
0.41161716 0.760571 -0.2503967
-0.40276629 0.77230752 -0.25136209
-0.39629918 0.77555472 -0.25652963
-0.36259392 0.77500647 -0.25289255
-0.35839552 0.77501845 -0.25834677
-0.3204163 0.77115297 -0.25145429
-0.31322631 0.77496439 -0.25421941
-0.30591756 0.7785899 -0.25746059
0.30572644 0.77893257 -0.25711665
0.3132731 0.77589333 -0.2525534
0.35887954 0.77805328 -0.25602812
0.36256102 0.77457905 -0.25317293
0.3968713 0.77568758 -0.25565287
0.4016307 0.77159166 -0.25355431
-0.39317143 0.78253502 -0.2535013
-0.38631251 0.7869066 -0.25552732
-0.36083663 0.7817266 -0.2514385
-0.35737783 0.78592855 -0.25590077
-0.30193433 0.78361744 -0.25395313
-0.29533276 0.78671438 -0.25350946
-0.28421655 0.78896737 -0.25570381
-0.27908617 0.78974384 -0.25772601
0.27849519 0.78988492 -0.25764841
0.28527343 0.78894186 -0.25448075
0.29549509 0.78634989 -0.25502607
0.30262274 0.78320229 -0.25375646
0.35740682 0.78511161 -0.25574175
0.36105925 0.78372294 -0.25078875
0.38632524 0.78661245 -0.25600427
0.39342433 0.7819277 -0.25375718
-0.38341829 0.79061729 -0.2530404
-0.37546971 0.79445016 -0.25406042
-0.36557144 0.79588658 -0.25486287
-0.3582077 0.79344183 -0.25634816
-0.28080803 0.79045743 -0.25121167
-0.2744928 0.7912147 -0.25489017
-0.2654711 0.79320437 -0.25470665
-0.25618458 0.7949428 -0.25591472
-0.24545048 0.79711545 -0.25457677
-0.23643713 0.79847771 -0.25523248
-0.22737026 0.79909623 -0.25935513
0.23666225 0.79832536 -0.25576079
0.24474417 0.79741824 -0.25372487
0.25480601 0.79527909 -0.25547704
0.26458433 0.79357845 -0.25361857
0.27282441 0.79125112 -0.25684118
0.28206491 0.79029393 -0.25055507
0.35988382 0.79553533 -0.25860643
0.36457151 0.79577231 -0.25497293
0.37360159 0.79444069 -0.25663391
0.38260144 0.79167426 -0.25230485
-0.2249783 0.80071527 -0.2535519
-0.21501474 0.80177319 -0.25474057
-0.20499937 0.80271542 -0.25542039
-0.19428462 0.80389893 -0.25470486
-0.18632692 0.8047393 -0.25446656
-0.17442095 0.80565745 -0.25667331
-0.16513553 0.8069064 -0.25436547
-0.15481979 0.80771327 -0.25616822
-0.14494506 0.80892688 -0.25340852
-0.13705224 0.80913633 -0.25541076
-0.12651961 0.80952394 -0.25727603
-0.11876152 0.80993384 -0.2578449
0.12536572 0.80974299 -0.25633618
0.13466521 0.80914021 -0.25637868
0.1435471 0.80881733 -0.25474694
0.15552428 0.80767077 -0.2559453
0.16569772 0.80687404 -0.25417709
0.17500627 0.80574954 -0.25552756
0.18507059 0.80484831 -0.2546075
0.19518615 0.80380458 -0.25472575
0.2040962 0.80276722 -0.25572282
0.21550952 0.80159956 -0.25558385
0.22410154 0.80083108 -0.25362739
-0.13041224 0.81025851 -0.25089541
-0.12333176 0.81032705 -0.25339529
-0.1130351 0.8109228 -0.25381356
-0.1039212 0.81158257 -0.25332448
-0.095268436 0.81210607 -0.25352788
-0.084870085 0.81242239 -0.25579974
-0.076174222 0.81314403 -0.25472972
-0.064049914 0.81352496 -0.25531161
-0.053369265 0.81393212 -0.25415963
-0.046218839 0.81402224 -0.25452206
-0.034471527 0.81417733 -0.2550739
-0.022881813 0.81467056 -0.25341865
-0.013918129 0.81448966 -0.25576133
-0.0050327703 0.81481725 -0.25481105
0.0047363578 0.81496787 -0.25387824
0.014321483 0.81470478 -0.25431952
0.024139585 0.81436676 -0.25521407
0.034795083 0.81416899 -0.25507754
0.04439497 0.81390345 -0.25551429
0.055249151 0.81361592 -0.25590315
0.063895628 0.81354451 -0.25525165
0.075189851 0.81292349 -0.25653091
0.084659666 0.81250012 -0.25538304
0.094889872 0.81189704 -0.25504044
0.10430051 0.81164157 -0.25278437
0.11534852 0.81059933 -0.25494888
0.12394204 0.81025285 -0.25362265
0.13219886 0.8101421 -0.25090775
-0.26126227 0.0098707452 -0.24125035
-0.25520304 0.0096607516 -0.24548408
-0.24539647 0.0088192634 -0.24313112
-0.23414513 0.0082838386 -0.24553296
-0.22614849 0.0076970956 -0.2438454
-0.21587594 0.0072499793 -0.24519283
-0.20579201 0.0069285529 -0.24621621
-0.19393773 0.0065426668 -0.24296713
-0.1850877 0.0063893194 -0.24485835
-0.17465231 0.0061647347 -0.24568613
-0.16510637 0.0059221061 -0.24525198
-0.15338972 0.0056592356 -0.2458382
-0.14592971 0.0054787719 -0.2454949
-0.13512284 0.0052362974 -0.24400793
-0.1252007 0.0051206704 -0.24495789
-0.1146081 0.0049941936 -0.24588868
-0.10404668 0.0048498791 -0.2463167
-0.095198698 0.0046683783 -0.24501117
-0.086041041 0.0045843855 -0.2465121
-0.074128985 0.0043569696 -0.24521975
-0.063078433 0.0042433543 -0.24527025
-0.055050761 0.0041711531 -0.24448021
-0.043616455 0.0041209618 -0.24469797
-0.036070172 0.0041490593 -0.2464035
-0.024768693 0.0040569585 -0.24553478
-0.014618567 0.0039364239 -0.24378988
-0.0042211297 0.0038996008 -0.24421294
0.002226558 0.0039735469 -0.24636067
0.014183842 0.0039908011 -0.24523415
0.025434703 0.0040182834 -0.24446109
0.03502126 0.0040279753 -0.24345224
0.04530834 0.0041333823 -0.24479328
0.053924683 0.0041906131 -0.24512425
0.066378646 0.0042518205 -0.24496825
0.076117508 0.0043501877 -0.24420659
0.085533008 0.0045039589 -0.24451473
0.094705962 0.004642047 -0.24449299
0.10486826 0.0048012552 -0.24463996
0.11558832 0.0049625179 -0.24461143
0.12545839 0.0051118974 -0.24460992
0.13574348 0.0053183706 -0.24600364
0.14498539 0.0055638617 -0.24868585
0.15501268 0.0057008029 -0.24592184
0.16420406 0.0058818008 -0.2446541
0.17530183 0.0061462549 -0.24459447
0.18407041 0.0064079855 -0.24623832
0.19457053 0.0065912143 -0.24403581
0.20516519 0.0069074226 -0.24596524
0.2142614 0.0071792174 -0.24574694
0.2248455 0.0076651243 -0.24442029
0.23624775 0.0083309794 -0.24454604
0.24388307 0.0088584004 -0.24559559
0.25456303 0.0095371585 -0.24416973
0.2621879 0.0099119935 -0.24076274
-0.35349527 0.019699644 -0.24556883
-0.34434903 0.018205918 -0.24614269
-0.33462518 0.016498365 -0.2458474
-0.3250449 0.014755262 -0.24203756
-0.31410331 0.014111221 -0.24617584
-0.30493069 0.013394097 -0.24565046
-0.29336283 0.012483873 -0.24488653
-0.28564182 0.011878665 -0.24441697
-0.2755858 0.01115274 -0.24488774
-0.26457053 0.010284743 -0.2441384
-0.2589708 0.010036359 -0.2471076
0.26582631 0.010522511 -0.24663495
0.27537072 0.011168783 -0.24544598
0.28580302 0.011929251 -0.24508582
0.294572 0.012568091 -0.24477644
0.30453208 0.013369631 -0.24574393
0.3171517 0.014345058 -0.24627246
0.32521859 0.01497006 -0.24519125
0.33410352 0.016344829 -0.24536254
0.34551603 0.018213945 -0.24468635
0.35254109 0.01927926 -0.24362405
-0.39273429 0.028659895 -0.24406908
-0.38620967 0.026263325 -0.24545461
-0.3747229 0.023242157 -0.24481094
-0.36428636 0.021588547 -0.24585111
-0.35791364 0.020441152 -0.24544264
0.36360204 0.021345351 -0.24489829
0.37440604 0.023232797 -0.24515247
0.3850106 0.025896382 -0.24601904
0.39340323 0.028729951 -0.24339481
-0.41079819 0.038338419 -0.24227776
-0.40578198 0.035665911 -0.2449645
-0.39609036 0.031283397 -0.24704443
0.39631575 0.031176375 -0.24645165
0.40597248 0.035749342 -0.24558419
0.41183212 0.038773581 -0.24078386
-0.41323513 0.046850663 -0.24394448
-0.40890917 0.044289727 -0.24801023
0.40899366 0.044600699 -0.24809703
0.41261399 0.045911405 -0.24417403
-0.42141831 0.058246423 -0.24510589
-0.41629764 0.053086545 -0.24648683
0.41584986 0.054072715 -0.24835575
0.4222424 0.058159966 -0.2431722
-0.43161082 0.069403335 -0.2485812
-0.42599487 0.064019941 -0.24623299
0.42550701 0.063368283 -0.24571399
0.43241093 0.068397865 -0.24354336
-0.44378489 0.077479385 -0.24430451
-0.43782103 0.073023632 -0.24485332
0.43765235 0.073260933 -0.24599263
0.44362521 0.077440158 -0.2445657
-0.45407739 0.085152641 -0.24330609
-0.44843474 0.081597283 -0.24587007
0.44820946 0.081113942 -0.24491376
0.45469007 0.085843399 -0.24393985
-0.47135341 0.099786632 -0.24513745
-0.46532658 0.095085837 -0.24588981
-0.45924053 0.09086556 -0.24818949
0.45917714 0.090417646 -0.2470305
0.46439442 0.093919352 -0.24471998
0.47133479 0.099328913 -0.24384296
-0.48299125 0.1088169 -0.24354742
-0.47586778 0.10370241 -0.24572784
0.47548383 0.103142 -0.24501187
0.48226756 0.10816934 -0.2433939
-0.49290213 0.11713389 -0.24402623
-0.48735341 0.11268332 -0.24435967
0.48648405 0.11233432 -0.24542944
0.49381241 0.11798449 -0.24432246
-0.50366825 0.12721506 -0.24457388
-0.49840325 0.12146419 -0.24340799
0.49787816 0.12238983 -0.24688402
0.50347859 0.12705037 -0.2446551
-0.51228476 0.13593662 -0.24356803
-0.50816572 0.13279784 -0.24637854
0.50879955 0.13274127 -0.24472249
0.51302087 0.13679388 -0.24373139
-0.52407491 0.14813782 -0.24279602
-0.51816267 0.14308012 -0.24558112
0.51886284 0.1429117 -0.24351195
0.52363032 0.14824049 -0.24409324
-0.5322246 0.15688418 -0.24296749
-0.52625006 0.15224075 -0.24684025
0.52692509 0.15273887 -0.24633925
0.5316968 0.15803151 -0.24682859
-0.54186124 0.16977525 -0.24622041
-0.53701085 0.16366358 -0.24669695
0.53774029 0.16380495 -0.24533504
0.54134887 0.16692494 -0.2431723
-0.54515845 0.17503807 -0.24566031
0.54501635 0.17318726 -0.24341074
-0.55235535 0.18697397 -0.2450659
-0.54881877 0.18317699 -0.24825461
0.54836458 0.18225546 -0.24805796
0.55211085 0.18579404 -0.24400339
-0.56016159 0.19774231 -0.24137098
-0.55701208 0.19504903 -0.24517445
0.55665165 0.19549085 -0.24666192
0.56094855 0.19849099 -0.24052864
-0.56331861 0.20600477 -0.24535008
-0.55996752 0.20084727 -0.2461866
0.55985504 0.20134009 -0.24714875
0.56247419 0.20446691 -0.24522813
-0.57052475 0.21736091 -0.24392323
-0.56748724 0.21425883 -0.24688414
0.56809169 0.21399878 -0.24506591
0.57104862 0.21767101 -0.2430968
-0.57358539 0.22555645 -0.24388456
0.57306713 0.22515318 -0.24489035
-0.57482648 0.23527659 -0.24552438
0.57574844 0.23547278 -0.24339689
-0.57673407 0.24529107 -0.24558441
0.57724935 0.2460786 -0.24470931
-0.5780071 0.25392932 -0.24653155
0.57791537 0.25461346 -0.24706888
0.58059543 0.2561712 -0.24134555
-0.58154643 0.26748994 -0.24431247
-0.57911593 0.26230881 -0.24775364
0.57911992 0.26401874 -0.24853696
0.58120424 0.2657162 -0.24431145
-0.58241409 0.27498838 -0.24570531
0.58252221 0.27546588 -0.24566665
-0.58468568 0.28533059 -0.24461332
0.58507979 0.28421402 -0.24334085
-0.58469135 0.29510838 -0.24412212
0.58418906 0.29500309 -0.2453537
-0.58347332 0.30437735 -0.24500689
0.58304191 0.30335313 -0.24627084
-0.5825761 0.31504148 -0.24481225
0.58283359 0.3145296 -0.24430656
-0.58187097 0.32612216 -0.24406385
-0.57970107 0.32540086 -0.24944191
0.58171761 0.3263582 -0.24438143
-0.5811224 0.33393449 -0.24414103
-0.5788908 0.33488533 -0.24929865
0.57962978 0.33898616 -0.24661727
0.58118266 0.33649793 -0.24343123
-0.58099985 0.34546864 -0.24189146
-0.57910812 0.34503737 -0.24653664
0.57844478 0.34506828 -0.24812567
0.58093995 0.34609208 -0.24189861
-0.58058119 0.35077733 -0.2417275
-0.57794708 0.35580537 -0.24695367
0.57802778 0.35621139 -0.24667016
0.58044261 0.35460576 -0.24121666
-0.57713628 0.36585227 -0.24486442
0.57677639 0.36607423 -0.24560007
0.58001107 0.36175752 -0.24033986
-0.57511443 0.37482801 -0.24448849
0.5745337 0.37621367 -0.24507597
-0.57315505 0.38306719 -0.24439192
0.56994194 0.38937393 -0.24843836
0.57328326 0.38374156 -0.24368948
-0.57160312 0.39358699 -0.2419841
-0.56886393 0.39568546 -0.24734756
0.56901717 0.39734024 -0.24601266
0.57110012 0.39373067 -0.24310969
-0.57065737 0.40030575 -0.24033721
-0.56759197 0.40450099 -0.24526131
0.56738025 0.40598288 -0.24490513
-0.56505799 0.41516602 -0.2451307
0.56506145 0.41490978 -0.24527188
-0.56267685 0.42583677 -0.24462937
0.56219798 0.42581475 -0.24579379
-0.56148857 0.43265194 -0.24350943
-0.55892718 0.43425456 -0.24873476
0.55820179 0.4386538 -0.2476337
0.56146824 0.43208212 -0.24389093
-0.5566498 0.44494936 -0.24605769
0.55706006 0.44375837 -0.24608569
-0.55351901 0.4550274 -0.24500032
0.55215716 0.45638347 -0.24711931
-0.55164236 0.46370053 -0.24212368
-0.54883248 0.46516636 -0.24763301
0.54894906 0.46561804 -0.24696594
0.55273205 0.46186316 -0.24106689
-0.55002242 0.47044218 -0.24027523
-0.54649544 0.4751319 -0.24476223
0.54742998 0.47302988 -0.24430349
-0.54242837 0.48632339 -0.24500789
0.54240531 0.48585436 -0.24546094
-0.54171205 0.49111971 -0.24264354
-0.53824723 0.49640369 -0.24647458
0.53773326 0.4971928 -0.2470365
0.5408892 0.49511337 -0.24121748
-0.5362218 0.50474805 -0.24423552
0.53642601 0.50471443 -0.2437713
-0.53277659 0.5148235 -0.24389434
-0.52877408 0.51921511 -0.24949202
0.52876824 0.51976073 -0.248936
0.53272444 0.51424927 -0.24452202
-0.53026998 0.52195889 -0.2430342
-0.52673507 0.52609211 -0.24722819
0.5280872 0.52444869 -0.24568787
0.53083992 0.52106917 -0.24258934
-0.52364391 0.53586334 -0.24447846
0.52416062 0.5350495 -0.24408329
-0.52208179 0.54219824 -0.2416327
-0.51882935 0.54598594 -0.24550764
0.51824182 0.54549879 -0.2474286
0.5213654 0.54295719 -0.24256453
-0.51513332 0.5554291 -0.24455465
0.51569813 0.55443829 -0.24422885
-0.51173127 0.56317955 -0.24465883
-0.50894994 0.56520605 -0.24923623
0.50901997 0.56708956 -0.24710469
0.51155013 0.56278878 -0.24550182
-0.50586194 0.57585818 -0.2455609
0.50627142 0.5747261 -0.24575572
-0.50246763 0.58452708 -0.24468933
-0.49878055 0.58979589 -0.24806595
0.49958381 0.58674484 -0.24931373
0.50232184 0.58356684 -0.24604066
-0.49748603 0.59424376 -0.24653588
0.49782106 0.59484601 -0.24510954
0.50070989 0.59165311 -0.24148928
-0.49352658 0.60488409 -0.24427801
-0.48896658 0.60979843 -0.24952644
0.49342114 0.60341966 -0.24623543
-0.49103227 0.61088377 -0.24329515
-0.4874689 0.6158126 -0.24612953
0.48744643 0.616256 -0.24566801
0.49128214 0.61171478 -0.24172711
-0.48318502 0.62577403 -0.24484022
-0.47985959 0.62998176 -0.24794164
0.48370317 0.62525469 -0.24419916
-0.48115283 0.63141459 -0.24316382
-0.47725493 0.63643157 -0.24670033
0.47821075 0.63457274 -0.24656515
0.48086438 0.6320672 -0.24309875
-0.47430611 0.64400488 -0.24497919
0.47446468 0.64358878 -0.24508268
-0.47124124 0.65368414 -0.2410863
-0.46858621 0.65471697 -0.24627022
0.4689227 0.6534574 -0.2469272
0.47146001 0.65205646 -0.24245502
-0.46438691 0.66531974 -0.24403112
0.46416008 0.66471297 -0.24528326
-0.46051064 0.67205489 -0.24551636
-0.45812401 0.67597038 -0.24670002
0.45822287 0.67597073 -0.24646199
0.46129727 0.67244738 -0.24316785
-0.45481622 0.68555969 -0.24328186
0.45435414 0.68501085 -0.24505138
-0.4511455 0.69205874 -0.2441725
-0.44852933 0.69536471 -0.24642135
0.44855729 0.69624585 -0.24527486
0.45158306 0.69282943 -0.24217592
-0.4438642 0.70495409 -0.24591354
0.44390592 0.70466292 -0.24616826
-0.44139692 0.71351629 -0.24137616
-0.43840033 0.71549493 -0.24616344
0.43873984 0.7166149 -0.24397601
0.44106644 0.71304476 -0.24274638
-0.43361399 0.72579044 -0.24508366
0.43439606 0.72499585 -0.24417363
-0.43164024 0.73211145 -0.2421003
-0.42825025 0.73570162 -0.24586281
0.42797941 0.73644537 -0.24560392
0.43053842 0.73207027 -0.24479985
-0.42318267 0.74586171 -0.24555066
-0.41974667 0.74909067 -0.24868101
0.42369682 0.74449158 -0.24588282
-0.4214685 0.75205255 -0.24217635
-0.41635436 0.75605446 -0.24761339
-0.38171515 0.7518115 -0.24167579
-0.37672326 0.75234205 -0.24443795
-0.3653304 0.75040609 -0.24614947
-0.35419601 0.75073612 -0.24678731
-0.34476981 0.75567478 -0.24595946
-0.33963597 0.75843686 -0.24801916
0.34489164 0.75531024 -0.24641049
0.35426477 0.75135243 -0.24463098
0.3647497 0.7504639 -0.24418303
0.37574279 0.7527653 -0.24507381
0.38046765 0.75582814 -0.24130195
0.41702202 0.75653738 -0.24612175
0.42094347 0.7534014 -0.24178904
-0.41498891 0.76258343 -0.24396165
-0.40827197 0.76842296 -0.24808183
-0.3733308 0.7641499 -0.24515557
-0.36951813 0.76732379 -0.2481835
-0.34001043 0.76194185 -0.24167196
-0.33377412 0.76510948 -0.24442799
-0.32875499 0.76904708 -0.24424739
0.32739127 0.76921338 -0.24573393
0.3343558 0.764678 -0.2444236
0.34157494 0.76066399 -0.24177346
0.36827955 0.76889461 -0.24889822
0.37306452 0.76485449 -0.24509835
0.4088029 0.76703995 -0.24877284
0.41268748 0.76450098 -0.24571109
-0.40436393 0.77635288 -0.24524249
-0.39977717 0.77829075 -0.24927239
-0.37224782 0.77051061 -0.24283752
-0.3666459 0.7750001 -0.24762566
-0.3238979 0.772744 -0.24417609
-0.31720859 0.77726275 -0.2450677
0.31658539 0.77815908 -0.24432921
0.32183164 0.7729941 -0.24643171
0.36704066 0.77654827 -0.24625045
0.37178269 0.77329862 -0.24189091
0.40501446 0.77525228 -0.24549593
-0.40204051 0.78289843 -0.24144842
-0.39285821 0.78840601 -0.2445209
-0.38875419 0.78962672 -0.24778387
-0.36613792 0.78504169 -0.24437506
-0.31313452 0.78245831 -0.24138793
-0.30433872 0.7859332 -0.24467738
-0.29522327 0.78826123 -0.24561717
-0.2868779 0.78959548 -0.24847963
0.29564169 0.78827608 -0.24498256
0.30560476 0.78497243 -0.24572767
0.31217235 0.78159314 -0.2441344
0.36520702 0.78451198 -0.24539544
0.38986146 0.78868079 -0.24795087
0.3958607 0.78501576 -0.24596937
0.40118456 0.78285867 -0.24262813
-0.39061955 0.79204541 -0.24124588
-0.38496456 0.79337275 -0.24474755
-0.37571761 0.79659307 -0.24388598
-0.3671633 0.79357427 -0.24520439
-0.28522766 0.7907657 -0.24361677
-0.27539489 0.79262727 -0.24525587
-0.26425749 0.79501396 -0.24544588
-0.25501695 0.79690242 -0.24615341
-0.24577279 0.79882532 -0.24607256
0.23751713 0.79958445 -0.24930535
0.24627179 0.79876006 -0.24576673
0.25663108 0.79662031 -0.24574302
0.26478645 0.79495507 -0.24510992
0.27397531 0.79291934 -0.24535167
0.28338945 0.79084909 -0.24550731
0.36689374 0.79350424 -0.24564262
0.37440079 0.79618365 -0.24488099
0.38553965 0.79365474 -0.24409293
0.39266992 0.79037637 -0.24141529
-0.24032632 0.80100065 -0.24062386
-0.23436183 0.80130714 -0.24306047
-0.22723161 0.80180317 -0.24513246
-0.21623589 0.80280805 -0.24608123
-0.20582145 0.80399823 -0.24508469
-0.19572559 0.80504614 -0.24491826
-0.18604138 0.8060841 -0.24451265
-0.17386757 0.80743283 -0.24367025
-0.16339521 0.80821264 -0.24582268
-0.15566723 0.80905205 -0.24541433
-0.14174639 0.80980021 -0.24915493
0.14587085 0.80978918 -0.24714319
0.15634471 0.80898815 -0.24537617
0.16377179 0.80821061 -0.24554783
0.17484231 0.80694598 -0.24660406
0.18526585 0.80597591 -0.24592732
0.19436796 0.80505091 -0.24592672
0.20363782 0.80420601 -0.24519107
0.21573198 0.80296129 -0.24530883
0.22443607 0.80205429 -0.24547799
0.23352261 0.80133611 -0.24356756
0.24332508 0.80021811 -0.24146596
-0.15086102 0.81020284 -0.24040389
-0.14417453 0.81057614 -0.24237989
-0.13419597 0.81057966 -0.24724022
-0.12542886 0.81158608 -0.24435978
-0.11658164 0.81208056 -0.24483246
-0.10494112 0.81296444 -0.24393669
-0.095693141 0.81355482 -0.24390437
-0.08422745 0.81409985 -0.24495925
-0.074571438 0.81466925 -0.2450265
-0.065414935 0.81514168 -0.24471065
-0.055683713 0.81529737 -0.24507654
-0.045194384 0.81530094 -0.24642825
-0.036704663 0.81557161 -0.24579366
-0.026669523 0.8155793 -0.24705875
-0.015147224 0.81605566 -0.2454955
-0.0054900264 0.81635487 -0.24482943
0.0064704469 0.81630373 -0.24503195
0.013775125 0.81613594 -0.24515754
0.023921285 0.8162297 -0.2432224
0.036313094 0.81554788 -0.24599791
0.045482341 0.81567699 -0.24396336
0.054882508 0.8151834 -0.24591617
0.064747192 0.81515723 -0.24476111
0.07667885 0.81458461 -0.24473858
0.086137712 0.81400687 -0.24478856
0.09616635 0.81336433 -0.24496551
0.1066319 0.81278396 -0.24440783
0.11554281 0.81227851 -0.24398038
0.12521137 0.81126183 -0.24655256
0.13544431 0.81102562 -0.24382983
0.14368345 0.8105135 -0.24341957
-0.26322514 0.0096881166 -0.23552485
-0.25482428 0.008954647 -0.23371167
-0.24594077 0.0083697485 -0.23510692
-0.23484349 0.0076687764 -0.23662923
-0.22612919 0.0070963427 -0.23466101
-0.21473344 0.0068086549 -0.23550065
-0.20549986 0.0065483092 -0.2342588
-0.19526386 0.0062712701 -0.23325275
-0.18444675 0.006068253 -0.23506501
-0.17531864 0.0058551459 -0.23525539
-0.16375923 0.0056002159 -0.23597519
-0.15527694 0.0054168925 -0.23662326
-0.14618133 0.0051742359 -0.23584187
-0.13514732 0.0049247253 -0.23534927
-0.12429991 0.0047302083 -0.23460999
-0.11525621 0.0045986385 -0.23475699
-0.1047077 0.004433718 -0.23461373
-0.094838813 0.0043145651 -0.23544475
-0.085153893 0.0041533182 -0.2350435
-0.077285722 0.0040819086 -0.23635386
-0.064131647 0.0038480728 -0.23479836
-0.056909822 0.0038463422 -0.23595056
-0.044883538 0.0037704289 -0.23558974
-0.034873877 0.0036774306 -0.23452885
-0.025786174 0.003631996 -0.23456056
-0.013658892 0.0035613971 -0.23434861
-0.0046248185 0.0035618301 -0.2355434
0.0052554547 0.0035832012 -0.23600601
0.015248551 0.0036337511 -0.23598622
0.026246781 0.0036153835 -0.23407659
0.035050351 0.0036856995 -0.23471685
0.045335863 0.003792407 -0.23609126
0.055707585 0.003828641 -0.23565654
0.064781144 0.0039184769 -0.23665214
0.075442009 0.0039768042 -0.23423402
0.08367873 0.0041079936 -0.23441212
0.094462663 0.0042745648 -0.23450279
0.10464778 0.0044032559 -0.2338022
0.11478459 0.0045741829 -0.23428151
0.12484424 0.0047202995 -0.2341115
0.13355818 0.0048934412 -0.23518822
0.14531446 0.0051272116 -0.2350014
0.15513666 0.0053791772 -0.23552231
0.16459814 0.0056021954 -0.23539321
0.17488098 0.0058640568 -0.23587705
0.18633455 0.0060799578 -0.23398831
0.19495572 0.0063177673 -0.23497911
0.2055064 0.0065666041 -0.23483972
0.21460763 0.0067778812 -0.23461138
0.22447221 0.0070996876 -0.23600587
0.23522942 0.0076309154 -0.23565155
0.24587429 0.0082358979 -0.23286836
0.25697201 0.0092945769 -0.23682261
0.26499635 0.0097247176 -0.23385668
-0.36300105 0.019792374 -0.23390754
-0.35633111 0.018420428 -0.23218361
-0.34615684 0.016922275 -0.23406102
-0.33475217 0.015164951 -0.23489127
-0.32587391 0.014369511 -0.23535194
-0.31525585 0.013472975 -0.23359028
-0.30331182 0.012575277 -0.23353323
-0.29494175 0.011983545 -0.23414195
-0.28562385 0.011276704 -0.2339842
-0.2742191 0.01049178 -0.23518451
-0.26932237 0.010192535 -0.23635584
0.2675035 0.010176161 -0.23843718
0.27523249 0.010750471 -0.23835966
0.28460583 0.011301186 -0.23573346
0.2934069 0.011944179 -0.23545446
0.30344224 0.01271272 -0.23575084
0.31602678 0.013639809 -0.23548533
0.32574895 0.014389993 -0.2358702
0.33561787 0.015347057 -0.23497425
0.34360018 0.015989965 -0.23031987
0.35599518 0.018737355 -0.23502336
0.36330825 0.019586872 -0.23195063
-0.40209517 0.029309988 -0.23227836
-0.39617643 0.02697161 -0.23452476
-0.38467672 0.023530155 -0.2340471
-0.37624523 0.02255391 -0.23761378
-0.3651481 0.020464141 -0.23620701
0.36609697 0.020303246 -0.23375358
0.37631705 0.022242764 -0.23516203
0.38478765 0.023583012 -0.23430359
0.39500818 0.026631808 -0.23513298
0.40027466 0.028603621 -0.23352441
-0.41394106 0.036143687 -0.2313119
-0.40528646 0.031778272 -0.23532739
0.40643233 0.032247242 -0.23479368
0.41373423 0.036911827 -0.23460384
-0.42002979 0.048473261 -0.23004542
-0.41648841 0.044655662 -0.23480268
0.41659328 0.045222729 -0.23526958
-0.4232187 0.055007912 -0.23482053
0.41909137 0.051150363 -0.23740149
0.42357484 0.055349257 -0.23461471
-0.43383965 0.066954918 -0.2357877
-0.42864466 0.063319109 -0.2376707
0.42627582 0.060869247 -0.23863082
0.43436795 0.067321606 -0.23550436
-0.45147386 0.079054065 -0.23068666
-0.44653454 0.077307127 -0.23715782
-0.43924865 0.07099881 -0.23515075
0.43874407 0.071115687 -0.23672545
0.44450811 0.074943855 -0.23471385
0.45206186 0.079799041 -0.2315772
-0.46295881 0.088299453 -0.23166473
-0.45605981 0.083997384 -0.23496123
-0.44981936 0.080121726 -0.23797151
0.44986272 0.080089562 -0.23776591
0.4556255 0.083687782 -0.23504545
0.461613 0.088140301 -0.23437719
-0.47171679 0.096437253 -0.23447108
-0.46756271 0.093647592 -0.23630661
0.46780694 0.093716733 -0.23592006
0.47230864 0.09715049 -0.23513193
-0.48449984 0.10693838 -0.23442678
-0.47755799 0.10228562 -0.23752035
0.47831959 0.10264759 -0.23674616
0.48367471 0.10655796 -0.23529856
-0.50087899 0.11961123 -0.23208368
-0.49480304 0.11566998 -0.23517415
-0.48910728 0.11085113 -0.23478447
0.48924598 0.11092357 -0.2346622
0.49447295 0.11529116 -0.23485976
-0.51104552 0.12979336 -0.23265967
-0.50547862 0.12494079 -0.23477645
-0.49936426 0.12044077 -0.23815218
0.49974236 0.12029655 -0.2368198
0.50449729 0.12376438 -0.23451996
0.51079488 0.12911505 -0.23172611
-0.51456004 0.13425799 -0.23430052
-0.50990582 0.13055952 -0.23713291
0.5096451 0.13067067 -0.23800801
0.51410788 0.13416909 -0.23518322
0.5203889 0.13878696 -0.230516
-0.52544844 0.14516571 -0.23277311
-0.51828837 0.14012784 -0.23860428
0.51907992 0.14109617 -0.23888488
0.52323735 0.14357647 -0.23449306
0.53000468 0.14916851 -0.23085921
-0.53403211 0.15568796 -0.23591563
0.5289433 0.15102953 -0.23762004
0.53405493 0.15536967 -0.23513825
-0.54451883 0.16686167 -0.23529038
-0.5385344 0.16186905 -0.23906016
0.53994113 0.16096379 -0.23362857
0.54468322 0.16625245 -0.23348562
-0.55124438 0.17742985 -0.23437174
-0.54830068 0.17320141 -0.23552997
0.54844296 0.17414011 -0.23650326
0.55176288 0.17735675 -0.23302303
-0.55527008 0.18550128 -0.23599252
0.55611068 0.18566275 -0.23419854
0.56026047 0.18987255 -0.2301133
-0.56246758 0.19717757 -0.2350338
-0.55816031 0.19170417 -0.23772793
0.55810291 0.19145471 -0.23751879
0.56219101 0.19608358 -0.23416877
-0.570189 0.20803648 -0.23167114
-0.56656563 0.20363173 -0.23421697
0.56605834 0.20413874 -0.23614797
0.57074118 0.20801473 -0.23031282
-0.57321727 0.21504858 -0.23420873
-0.56973451 0.21004193 -0.23557302
0.56938457 0.21057811 -0.23716579
0.57407832 0.21656547 -0.23426121
-0.57714444 0.22364353 -0.23437808
0.57670915 0.22325754 -0.23523071
-0.58045703 0.23689519 -0.23273323
-0.57809472 0.23396461 -0.23705485
0.57797688 0.23242117 -0.23662044
0.58062571 0.23873352 -0.23317933
-0.5813446 0.2439713 -0.23388253
-0.57925075 0.24192634 -0.23796959
0.57914627 0.2421999 -0.23834649
0.58143806 0.24453937 -0.23392002
-0.58328325 0.25548011 -0.23456122
0.58367616 0.2552056 -0.23348783
-0.58507812 0.26493245 -0.2346309
0.58489943 0.26455289 -0.23488374
-0.58687842 0.27577516 -0.23533291
0.58717638 0.27687907 -0.23512824
-0.59073299 0.28479931 -0.23024985
-0.5878101 0.28584021 -0.23744008
0.58787102 0.28429732 -0.23671113
0.59075338 0.28833041 -0.23096223
-0.59028518 0.29381698 -0.23095262
-0.58847803 0.29441562 -0.23516713
0.58807576 0.29428217 -0.2361643
-0.58756655 0.30437073 -0.23516324
0.58811724 0.30539951 -0.23361209
-0.58714068 0.31529698 -0.23377723
0.58726263 0.31636643 -0.23324853
-0.58613056 0.32279047 -0.23455355
0.58527184 0.3250961 -0.2361113
-0.58461064 0.33534074 -0.23544091
0.58439994 0.3364118 -0.23571178
-0.58378655 0.34507254 -0.2352764
0.58317637 0.34637788 -0.23645629
-0.58274829 0.35336953 -0.23594335
0.58303642 0.35401195 -0.23510884
-0.58166379 0.36685887 -0.23338729
-0.57990617 0.36883211 -0.23646288
0.57930225 0.36682653 -0.23908587
0.58194107 0.36486587 -0.23385035
-0.58082241 0.37134188 -0.23279426
-0.57873744 0.37528396 -0.23550804
0.57810462 0.37512445 -0.2371231
0.58093917 0.37349921 -0.23125412
-0.57704967 0.38564271 -0.23352107
0.5766961 0.38715801 -0.23348668
-0.57428366 0.3946403 -0.2349221
0.57465744 0.3962335 -0.23309274
-0.57166666 0.40615588 -0.23449485
-0.56960237 0.40735459 -0.23876038
0.57159561 0.4047913 -0.23546183
-0.57021552 0.4178142 -0.23118018
-0.56872904 0.41601235 -0.2358073
0.5689165 0.41587299 -0.23543738
0.57094079 0.41354042 -0.23192997
-0.56639463 0.42553779 -0.235862
0.56660515 0.42525989 -0.23551765
-0.56384522 0.4348762 -0.23649918
0.56478977 0.43530992 -0.23393464
-0.56165677 0.44625962 -0.23289862
-0.55865443 0.44903648 -0.23775373
0.55906475 0.44705021 -0.23845887
0.56215411 0.44346336 -0.23408464
-0.56075609 0.45016009 -0.23174129
-0.55769658 0.45584396 -0.23425671
0.5569995 0.45555675 -0.23617694
-0.55468297 0.46469021 -0.23396699
0.5542028 0.46510357 -0.23476779
-0.55174553 0.47222647 -0.23461032
-0.54912144 0.47646868 -0.23730697
0.54850107 0.47720692 -0.23816764
0.55134755 0.47530797 -0.23293948
-0.55022091 0.48137853 -0.23047875
-0.54725766 0.48475772 -0.23472658
0.5460434 0.48688722 -0.23583013
0.55014312 0.48062921 -0.23130172
-0.5438379 0.49360943 -0.23540881
0.54298687 0.49580297 -0.23558439
-0.54182553 0.50494701 -0.23058766
-0.53834856 0.50674528 -0.2374184
0.53896427 0.50529128 -0.23717459
0.54162288 0.50238049 -0.23326023
-0.53723276 0.51409072 -0.2337611
0.53600919 0.51480234 -0.23608477
-0.53268003 0.52432477 -0.23477136
-0.52967262 0.52631032 -0.23993537
0.52999514 0.52885115 -0.23650993
0.53241783 0.52454603 -0.23517004
-0.53071839 0.53114831 -0.23237722
-0.52773362 0.53661263 -0.23386078
0.52766842 0.53507048 -0.23562425
-0.52303463 0.54472852 -0.23670365
0.52428162 0.54435563 -0.23409258
-0.52131021 0.55250955 -0.2327408
-0.51831168 0.55615664 -0.23615161
0.51822394 0.55610949 -0.23641182
0.52074689 0.55403173 -0.23250926
-0.51499367 0.56503856 -0.23487429
0.51410431 0.56602496 -0.23598528
-0.51228613 0.57403028 -0.23201473
-0.50867629 0.57745767 -0.23712452
0.50848567 0.5775826 -0.23745282
0.51156133 0.57408887 -0.2336967
-0.50663221 0.58434832 -0.23485917
0.50661784 0.58452427 -0.23470981
-0.50280994 0.59456152 -0.23340757
-0.4986904 0.59814668 -0.23957898
0.49951807 0.59831595 -0.23738211
0.50232571 0.59512049 -0.23397262
-0.50002062 0.60314637 -0.230681
-0.4971185 0.60488522 -0.23563728
0.49661982 0.60570663 -0.23588057
-0.49243423 0.61583292 -0.2341634
-0.48989052 0.61915833 -0.23641153
0.49323037 0.61428648 -0.23404822
-0.49108773 0.62209171 -0.23011827
-0.48716974 0.62530535 -0.23580182
0.48794261 0.62527865 -0.23397483
0.49085554 0.62125033 -0.23165636
-0.48307383 0.6345281 -0.23492016
-0.47944403 0.63907003 -0.23836464
0.48360994 0.633937 -0.23431931
-0.48059404 0.6428231 -0.23123094
-0.47734305 0.64403015 -0.23764549
0.47733253 0.64617127 -0.23517983
0.48108974 0.64160675 -0.23145513
-0.4735406 0.65463638 -0.23444785
0.46965703 0.65901202 -0.2386969
0.47334445 0.65435719 -0.23524532
-0.47115853 0.66177654 -0.23186772
-0.46715006 0.66682547 -0.23563311
0.46810704 0.66545576 -0.23492599
0.47061518 0.66212398 -0.23277086
-0.46426764 0.67300349 -0.2353764
0.45993692 0.67833954 -0.23958275
0.46321237 0.67528903 -0.23525491
-0.46071768 0.68269932 -0.23256867
-0.45837006 0.68509966 -0.2352929
0.45793718 0.68588942 -0.23538189
0.46099523 0.68306231 -0.23147096
-0.45350939 0.69462937 -0.23534329
0.44953322 0.69921213 -0.23929949
0.45344901 0.69520456 -0.23478293
-0.45066991 0.70302379 -0.23190619
-0.44807443 0.70532411 -0.23533525
0.44817236 0.70508403 -0.23539105
0.45078301 0.70142031 -0.2335926
-0.44419846 0.7143383 -0.23363301
0.44361055 0.71457249 -0.23475842
-0.44138569 0.72049797 -0.23286469
-0.43774861 0.72602111 -0.23485745
0.43790832 0.72498345 -0.23574071
0.44176334 0.72019398 -0.23232599
-0.43397367 0.73474234 -0.23327063
-0.42967191 0.73820668 -0.23937975
0.43306941 0.73469919 -0.2354967
-0.43080294 0.74180096 -0.23226386
-0.4282608 0.74460071 -0.23495375
0.4275378 0.74536306 -0.23575909
0.43063024 0.74220604 -0.23218212
-0.42343244 0.75417268 -0.23485999
-0.4196206 0.7581535 -0.23915941
-0.39065811 0.75146782 -0.23090756
-0.38492227 0.75334322 -0.23406079
-0.37452689 0.7504003 -0.23445837
-0.36430892 0.75075513 -0.23402737
-0.35511574 0.75431448 -0.23493037
-0.34741324 0.75894678 -0.23705053
0.34780809 0.75782377 -0.23841459
0.35509801 0.75401092 -0.2357036
0.36451933 0.75089073 -0.23352146
0.37553492 0.75036234 -0.23493026
0.38432872 0.75317651 -0.23536327
0.4197903 0.75844693 -0.23839158
0.42235526 0.75561702 -0.23568323
-0.42107335 0.76111478 -0.23204327
-0.41710493 0.76556438 -0.23580994
-0.38284361 0.76342779 -0.23325977
-0.37747678 0.76602829 -0.23861901
-0.34423754 0.76296681 -0.23445432
-0.33711085 0.76795226 -0.23526299
0.33663595 0.76835597 -0.23519096
0.34363538 0.76377285 -0.23388503
0.3780179 0.76671535 -0.23751405
0.3820512 0.76501495 -0.23329078
0.4174529 0.76500314 -0.23581275
0.42088088 0.76044732 -0.23332171
-0.41178241 0.77431148 -0.23516494
-0.40871 0.77835912 -0.23614514
-0.3816759 0.77095175 -0.23032878
-0.37601814 0.77506644 -0.23539811
-0.33303481 0.77135926 -0.23468454
-0.32713881 0.77548909 -0.23521645
0.32597163 0.77650273 -0.23498298
0.33193159 0.77322108 -0.23290205
0.37509686 0.77671129 -0.23568116
0.38052118 0.7726481 -0.23088673
0.40905449 0.77799344 -0.23589562
0.41242114 0.77444243 -0.23342109
-0.40381077 0.78473806 -0.23512292
-0.39749599 0.78971225 -0.23626797
-0.37427011 0.78606689 -0.23376621
-0.32087132 0.7810725 -0.23371962
-0.31491324 0.78527313 -0.23321269
-0.3059369 0.78752053 -0.23611838
-0.29803273 0.78918934 -0.23640345
0.29771307 0.78933632 -0.23593809
0.30272257 0.78819317 -0.23626886
0.31342357 0.78528565 -0.23491003
0.3223964 0.78108686 -0.23171104
0.36965546 0.78629524 -0.23971979
0.37383768 0.78392446 -0.23451249
0.39629146 0.78972393 -0.23781385
0.40396976 0.78491479 -0.23452932
-0.39454982 0.79267591 -0.23448607
-0.38480681 0.79624903 -0.23456001
-0.37600037 0.79333264 -0.23445588
-0.29036915 0.79078108 -0.23683672
-0.28423277 0.79230803 -0.23567209
-0.27576107 0.79415977 -0.23559976
-0.26498306 0.79666072 -0.23463805
-0.25542226 0.79857296 -0.23561966
-0.24851175 0.79962355 -0.23831518
0.24690776 0.7997821 -0.23945177
0.25522509 0.7988618 -0.23414581
0.26442873 0.79652452 -0.23617437
0.27555674 0.79423583 -0.23540856
0.28442511 0.79224467 -0.23580053
0.29416081 0.79060191 -0.23297699
0.37490761 0.79290038 -0.23556225
0.38349968 0.79632914 -0.23556474
0.39471188 0.79330307 -0.23261729
-0.24341787 0.80121595 -0.23448676
-0.2345829 0.80214638 -0.23668948
-0.22532065 0.80332547 -0.23518172
-0.21629794 0.80443245 -0.2337452
-0.2046462 0.8051874 -0.23699227
-0.19527279 0.80629283 -0.2358371
-0.18585412 0.80728263 -0.23559041
-0.17379025 0.80857879 -0.23506102
-0.16589117 0.80924809 -0.23607095
-0.1576557 0.80990148 -0.23745996
0.1594483 0.80969942 -0.2376101
0.1648546 0.80931288 -0.23637758
0.17621984 0.80829853 -0.23531301
0.18499604 0.80763894 -0.23355521
0.1940362 0.80656433 -0.23473366
0.20442481 0.80539513 -0.23559119
0.2151632 0.80457145 -0.23356609
0.22499254 0.80354488 -0.23377451
0.23544738 0.80230665 -0.23468034
0.24454166 0.80088753 -0.235567
-0.15452537 0.81044525 -0.23575285
-0.14531676 0.81162888 -0.23387988
-0.13617748 0.81230873 -0.23510633
-0.1257433 0.81319255 -0.23379539
-0.11323757 0.81381655 -0.23485532
-0.10322058 0.81425351 -0.23600242
-0.094194897 0.81499475 -0.23460716
-0.083852179 0.81535971 -0.23637225
-0.074176185 0.81606573 -0.23549131
-0.064569779 0.8167755 -0.23415431
-0.05454912 0.81703579 -0.23400733
-0.045066882 0.81704026 -0.23522089
-0.033697098 0.81736183 -0.2346369
-0.024969868 0.8176055 -0.2342079
-0.015382841 0.81752545 -0.23598054
-0.0037173021 0.81799698 -0.23446679
0.0070755985 0.81780833 -0.23524438
0.013552309 0.81757927 -0.23587294
0.024280703 0.81758916 -0.23440357
0.035859086 0.81743079 -0.23390794
0.04507716 0.81705695 -0.23511267
0.053937707 0.81707579 -0.23383014
0.065144621 0.81672895 -0.23422666
0.074628197 0.81583935 -0.23687622
0.084048592 0.81563753 -0.23436059
0.092970259 0.81504428 -0.23477274
0.10404825 0.81431001 -0.23526682
0.11448912 0.81404877 -0.23274001
0.12496095 0.81298566 -0.23547223
0.13551649 0.81233037 -0.23524515
0.14410204 0.81147218 -0.2359989
0.15525533 0.81069946 -0.23326945
0.16002443 0.81025481 -0.2329661
-0.27467936 0.0098619545 -0.22364567
-0.26458499 0.0091715455 -0.22478318
-0.25470471 0.0084967436 -0.22591335
-0.24521574 0.0077158739 -0.22469208
-0.23534697 0.0071020094 -0.22581162
-0.22606601 0.0067781177 -0.22538473
-0.21634977 0.0065078321 -0.22462042
-0.2054846 0.0062398897 -0.22438955
-0.19639613 0.0060351458 -0.22481741
-0.18437046 0.0057641487 -0.2253809
-0.1744692 0.0055119102 -0.22491209
-0.16536765 0.0053169513 -0.22566353
-0.15671107 0.0051192013 -0.22598341
-0.14545898 0.0047751265 -0.22361082
-0.1350169 0.0045813676 -0.2253045
-0.12436244 0.0043517076 -0.22419003
-0.11497467 0.0041865152 -0.22355677
-0.10460091 0.0041035297 -0.2255909
-0.094825737 0.0039229537 -0.22469623
-0.08537861 0.0037959067 -0.22513519
-0.075487904 0.0035881326 -0.22354183
-0.065997027 0.0034766793 -0.22442724
-0.054201137 0.0034083826 -0.22513299
-0.044851903 0.0033852097 -0.22576679
-0.034732908 0.0033611979 -0.22648011
-0.025875511 0.0032395103 -0.22453643
-0.01421036 0.0032093262 -0.2252949
-0.0053963847 0.0031642977 -0.22530118
0.0049780682 0.0031898816 -0.22600868
0.014905098 0.0031746482 -0.22431937
0.025143407 0.0032026104 -0.22369121
0.034916408 0.0033558344 -0.22631942
0.045165017 0.0033709235 -0.22536139
0.056608181 0.00337707 -0.22401874
0.067122802 0.0034582447 -0.22345272
0.074054904 0.0036769661 -0.22657692
0.086715236 0.0038437285 -0.22589269
0.094429508 0.0039161313 -0.22467369
0.10463093 0.004071523 -0.22469948
0.11473968 0.0042168121 -0.22448637
0.12486809 0.0044003916 -0.2253166
0.13442239 0.0045637866 -0.22517967
0.14426853 0.0047650957 -0.2242042
0.15598556 0.0050704358 -0.22497833
0.16514374 0.0053120148 -0.22567703
0.17474468 0.0054626549 -0.22312181
0.18514453 0.0057990043 -0.22590208
0.19575033 0.0060214857 -0.22487602
0.20690936 0.0062645231 -0.22408314
0.2144801 0.0064978078 -0.22573654
0.22431259 0.0067233192 -0.2250562
0.23533051 0.0070265788 -0.22402795
0.24495123 0.0077411304 -0.22547488
0.25319406 0.0082636494 -0.22382936
0.26586342 0.0092760175 -0.2249348
0.2746895 0.009859018 -0.22358125
-0.36515173 0.018946847 -0.22470094
-0.35581943 0.017334972 -0.22462116
-0.3456704 0.015646501 -0.22489454
-0.33494857 0.014590709 -0.22739041
-0.3241877 0.013679163 -0.22555381
-0.31440377 0.012966597 -0.22590281
-0.30419832 0.012176077 -0.22544596
-0.29394701 0.011355718 -0.22453049
-0.28531802 0.010740525 -0.22506846
-0.27645043 0.010153002 -0.2263975
0.27699253 0.010198794 -0.22648761
0.28465423 0.010704471 -0.22530541
0.29541448 0.01148003 -0.22478078
0.30443177 0.012213877 -0.22579868
0.31425291 0.012967906 -0.22612162
0.32568073 0.013737071 -0.22461762
0.33611074 0.014544651 -0.22507861
0.34448823 0.015497148 -0.22495526
0.35601097 0.017578447 -0.22621794
0.36520118 0.018928731 -0.22449945
0.37111178 0.019662432 -0.22237307
-0.40218791 0.027662164 -0.22474754
-0.39532816 0.024430014 -0.22346498
-0.38558719 0.022570996 -0.22456828
-0.37565374 0.020875748 -0.22564363
0.3688893 0.02017555 -0.22915348
0.37763897 0.020901868 -0.22310819
0.38465658 0.022383139 -0.22456191
0.3950983 0.024555052 -0.22431487
0.40361995 0.028392652 -0.22454293
-0.42061844 0.039956979 -0.22076698
-0.41580641 0.035490829 -0.22463872
-0.40843973 0.031438872 -0.22645988
0.40830159 0.03154318 -0.22725503
0.41449842 0.034729745 -0.22518732
0.42038611 0.039361686 -0.22081953
-0.42175305 0.04496865 -0.22254869
-0.41918588 0.042506158 -0.22637224
0.41918379 0.043445703 -0.22717193
0.4211539 0.044788308 -0.22370364
-0.4300496 0.058093768 -0.22426745
-0.42614371 0.053894192 -0.22566406
0.42699012 0.054678902 -0.22512367
0.43040958 0.058979969 -0.22509056
-0.4403857 0.068051778 -0.22329186
-0.43563202 0.064661324 -0.22517529
