# .PCD v0.7 - Point Cloud Data file format
VERSION 0.7
FIELDS x y z
SIZE 4 4 4
TYPE F F F
COUNT 1 1 1
WIDTH 1432
HEIGHT 1
VIEWPOINT 0 0 0 1 0 0 0
POINTS 1432
DATA ascii
0.91431397 -0.7045303 0.19566539
0.92333704 -0.70144492 0.19115411
-0.92379439 -0.69456381 0.19442312
-0.91922361 -0.69364375 0.19799988
-0.49429402 -0.69120109 0.19956011
-0.48568505 -0.69396681 0.19734152
-0.4761005 -0.69630492 0.19434969
-0.46555111 -0.6992712 0.19133325
0.46510991 -0.69835883 0.19047728
0.47715113 -0.69523978 0.19410808
0.48448172 -0.6945051 0.19713823
0.49289617 -0.69171166 0.19924319
0.91824263 -0.69615525 0.19735841
0.92272967 -0.69406706 0.19540316
0.932239 -0.691369 0.19036087
-0.9334113 -0.68391758 0.19343659
-0.92563397 -0.68564194 0.19781654
-0.50235707 -0.68340439 0.19818346
-0.49437317 -0.68592817 0.19588897
-0.48350587 -0.68727684 0.19157659
0.47928986 -0.68882012 0.1906229
0.4896304 -0.68530476 0.19315171
0.49388754 -0.68435788 0.19454923
0.50288534 -0.68303508 0.19820793
0.92774767 -0.68538791 0.1965159
0.93285501 -0.68454003 0.19349296
-0.94193643 -0.67284703 0.19300467
-0.93492389 -0.67426878 0.19725345
-0.92919266 -0.67826998 0.19923845
-0.51467437 -0.67388147 0.19813494
-0.50517988 -0.67627972 0.19482248
-0.49695966 -0.67657012 0.19074392
0.49811611 -0.67585391 0.19085999
0.50568217 -0.67567295 0.19467248
0.51187152 -0.67485219 0.19733521
0.92862499 -0.67916316 0.19915871
0.93636119 -0.67560035 0.19559777
0.94176453 -0.67423415 0.19245444
-0.95245075 -0.66126531 0.1912061
-0.94475049 -0.6642952 0.19516174
-0.93418378 -0.66983408 0.19992134
-0.53331637 -0.66207606 0.19982892
-0.52229851 -0.66642928 0.19704916
-0.51556212 -0.66586983 0.19316629
-0.5092954 -0.66685081 0.19057186
0.51658362 -0.66640335 0.1940593
0.52659386 -0.66242796 0.1965711
0.53137261 -0.66048175 0.19773737
0.93922907 -0.66714936 0.19766806
0.94607162 -0.66527104 0.19375913
-0.95439094 -0.65478939 0.19297382
-0.9454937 -0.65586227 0.19871926
-0.54196143 -0.65101665 0.19734281
-0.53541058 -0.65109855 0.19376113
-0.5264681 -0.6565215 0.19250664
0.51966202 -0.65852809 0.1903224
0.52470654 -0.65783393 0.19247556
0.53570896 -0.65454787 0.19618492
0.54505455 -0.65059745 0.19878678
0.94774359 -0.65321153 0.19841777
0.95379716 -0.65645051 0.19258806
-0.96346629 -0.64531457 0.19116892
-0.95499301 -0.64610344 0.1967532
-0.55271667 -0.64251852 0.19778967
-0.54456127 -0.64581543 0.19540635
-0.53611428 -0.64655584 0.19120039
0.53702819 -0.64653593 0.1916946
0.5448333 -0.64568782 0.19547436
0.55162978 -0.64436328 0.19838507
0.95481187 -0.64494276 0.19744243
0.96239042 -0.6434024 0.19285172
-0.96427315 -0.63596398 0.19512574
-0.95923024 -0.63867712 0.19736348
-0.56670779 -0.6317541 0.19855975
-0.55550885 -0.63469911 0.19425897
-0.5477941 -0.63751847 0.19180989
0.54738253 -0.63577646 0.19044991
0.55512094 -0.63418722 0.19371124
0.5604257 -0.63261956 0.19563623
0.95688021 -0.63689393 0.19988105
0.96608543 -0.63684434 0.19342358
-0.97332716 -0.62492251 0.1938252
-0.96646738 -0.62700862 0.19784996
-0.57172471 -0.62214106 0.19548194
-0.5649929 -0.6248312 0.19319788
0.55905443 -0.62555659 0.19028677
0.56413853 -0.62482029 0.19269958
0.57393694 -0.62411499 0.19800626
0.96768332 -0.62673241 0.19710396
0.97359091 -0.62434566 0.19389057
-0.97620088 -0.61677051 0.19537087
-0.5832969 -0.61247891 0.19629949
-0.57540798 -0.61535418 0.19344196
0.57612473 -0.61599255 0.19425905
0.58223408 -0.61454886 0.19695726
0.96997541 -0.61950403 0.19868571
0.97563249 -0.61484039 0.19664653
-0.99161351 -0.60276252 0.19039661
-0.98478752 -0.60585934 0.19398662
-0.97936195 -0.60389227 0.19881709
-0.59392112 -0.60420412 0.19741939
-0.58663994 -0.60530466 0.19381937
-0.57879263 -0.60997587 0.19209932
0.57973295 -0.60966003 0.19245651
0.58477247 -0.60521406 0.19266489
0.59328741 -0.60441309 0.1971762
0.97727537 -0.60737538 0.19878215
0.98575842 -0.60359198 0.19429156
0.99178934 -0.6014474 0.19085558
-0.99231786 -0.59328008 0.19411652
-0.98837453 -0.59185988 0.19762309
-0.61060369 -0.59117162 0.19976844
-0.60367697 -0.59378916 0.19701506
-0.59594154 -0.59505993 0.19300206
-0.5865885 -0.59992301 0.19045389
0.59630364 -0.595985 0.19380116
0.60624933 -0.59336764 0.19836135
0.98690587 -0.59486181 0.1973529
0.99386036 -0.59644675 0.19157924
-1.0016923 -0.58219284 0.19223686
-0.99561769 -0.5855515 0.19516271
-0.9889431 -0.58579838 0.19991477
-0.61497355 -0.58332258 0.1978606
-0.60500085 -0.58486581 0.19258766
-0.59970528 -0.58608294 0.1900216
0.60453314 -0.58852994 0.19445276
0.61388415 -0.58145398 0.19608657
0.99470717 -0.58647454 0.19541398
1.0041499 -0.58227974 0.1904079
-1.0058099 -0.57544386 0.19204633
-0.99806637 -0.57472128 0.19815505
-0.62276876 -0.57367784 0.19701953
-0.6168254 -0.57431525 0.1937111
-0.60914135 -0.5799669 0.19227263
0.61554116 -0.57445401 0.1929968
0.62460071 -0.57367134 0.19815104
0.99661624 -0.5757556 0.19872829
1.0044079 -0.57409233 0.19364734
-1.0124168 -0.56343907 0.19197957
-1.0070467 -0.56745565 0.19437432
-0.63285667 -0.56269807 0.19705544
-0.62587029 -0.56470591 0.1937128
-0.61826193 -0.56978828 0.19193898
0.62506115 -0.56659788 0.19427653
0.63171029 -0.56299806 0.19647281
1.005394 -0.5664137 0.19604006
1.011645 -0.56591576 0.1915497
-1.0141975 -0.55388248 0.1945387
-1.0090015 -0.55540967 0.19781734
-0.64472288 -0.55006099 0.19774821
-0.6343419 -0.55653489 0.19459628
-0.6264506 -0.55802804 0.19029808
0.63516009 -0.55663711 0.19518456
0.64114922 -0.55597192 0.19870633
1.0086257 -0.55355126 0.1988572
1.0153942 -0.55387366 0.1936439
-1.0219162 -0.54327863 0.19306612
-1.0150968 -0.5444566 0.19770613
-1.0099983 -0.54840916 0.1999229
-0.65281838 -0.54455322 0.19995143
-0.64407647 -0.54509002 0.19457005
-0.63924718 -0.54295623 0.19024864
0.64427227 -0.54642069 0.19543557
1.0154369 -0.54484838 0.19729106
1.022642 -0.54474729 0.19192255
-1.0252558 -0.53605664 0.19350277
-1.0187027 -0.53303277 0.19965583
-0.65485466 -0.53448361 0.19569023
0.64676571 -0.53619373 0.19138078
0.65437776 -0.53469515 0.19549459
0.66098732 -0.53167695 0.19823831
1.0175726 -0.53834283 0.1983397
1.0245504 -0.53455877 0.1946432
1.0308106 -0.53300649 0.19057564
-1.0344284 -0.52378255 0.19146341
-1.0242127 -0.52388895 0.19922417
-0.66430515 -0.52234435 0.19563316
-0.65668714 -0.52822477 0.19353227
0.65763164 -0.52499658 0.19248925
0.66451877 -0.52469105 0.19699857
1.0253897 -0.52588624 0.19754855
1.0308359 -0.52523291 0.19370347
-1.0340959 -0.51445878 0.19517459
-1.0281109 -0.51658857 0.19900641
-0.67370826 -0.51389903 0.19761406
-0.66582209 -0.51523066 0.19296144
0.66467226 -0.51519108 0.19216162
0.67566013 -0.51375109 0.19886039
1.0294662 -0.51354253 0.19908175
1.031464 -0.51358193 0.19752666
1.0412511 -0.51145983 0.19076002
-1.0419431 -0.50397527 0.19297922
-1.0366151 -0.50408518 0.19704737
-0.68189216 -0.50586617 0.19898312
-0.6753512 -0.50498915 0.19409354
-0.66805583 -0.50860482 0.19102927
0.66957408 -0.50791097 0.19169769
0.67660195 -0.50633901 0.19564366
0.68277746 -0.50336987 0.19828528
1.0352252 -0.50535303 0.19765291
1.0423599 -0.50416368 0.19258845
-1.0461328 -0.49427938 0.19331463
-1.036707 -0.4970642 0.19955879
-0.69418466 -0.49083233 0.19998541
-0.68489099 -0.49643677 0.19620928
-0.67840552 -0.49690557 0.19195938
0.67702782 -0.49661458 0.19087447
0.68399268 -0.4947345 0.19473144
0.69059372 -0.493572 0.19878303
1.0381041 -0.49599567 0.19887468
1.0420625 -0.49300003 0.19692402
1.0503858 -0.49004585 0.1915921
-1.053247 -0.48452625 0.191416
-1.0450474 -0.48532975 0.1974434
-0.7001406 -0.4800247 0.19894913
-0.69377404 -0.48647195 0.1975863
-0.68699187 -0.48753446 0.1933251
0.6867277 -0.48540565 0.19210905
0.69664019 -0.48222402 0.19754888
1.0470068 -0.48451293 0.19623274
1.052428 -0.48569596 0.19161716
-1.0607328 -0.47164875 0.19035447
-1.0536814 -0.47449932 0.194769
-1.0476686 -0.47674796 0.19857861
-0.70316237 -0.47453952 0.19842251
-0.6953935 -0.47466925 0.19301525
-0.68990988 -0.47981963 0.19164652
0.68912798 -0.47948331 0.19093315
0.69467974 -0.47697052 0.19362627
0.70362061 -0.47336453 0.19817664
1.0479188 -0.47481281 0.19909735
1.0525422 -0.47483575 0.19552371
1.0600613 -0.47144145 0.19095227
-1.0616961 -0.46497184 0.19177726
-1.0559903 -0.46482959 0.19632743
-0.71096289 -0.46520466 0.19939777
-0.70472789 -0.46475095 0.19478808
-0.69852561 -0.46619409 0.19111946
0.69823098 -0.46618855 0.19090924
0.70581889 -0.4645322 0.19545041
0.71293902 -0.46225891 0.19939096
1.0551167 -0.46473655 0.19704758
1.0615093 -0.46531758 0.19181165
-1.0637152 -0.45713845 0.19274469
-1.0570304 -0.45441329 0.19891214
-0.71466792 -0.4557783 0.19775745
-0.70782751 -0.45814863 0.19383496
0.70671344 -0.45490751 0.19158559
0.71167505 -0.45445532 0.19498672
1.0594627 -0.45402294 0.19711994
1.0638616 -0.45504948 0.19331211
-1.0717576 -0.4439421 0.19071116
-1.0662626 -0.44350123 0.19519261
-0.72257233 -0.44312039 0.19786493
-0.71620864 -0.44436216 0.19378364
0.71131742 -0.44704652 0.19141895
0.72179747 -0.44571251 0.19845763
1.0588968 -0.44949827 0.19904588
1.0651773 -0.44402942 0.19587651
1.0720196 -0.44530943 0.19005737
-1.0719512 -0.43219209 0.19440007
-1.0624238 -0.43827105 0.19993274
-0.72477895 -0.43364513 0.19524263
-0.71753621 -0.43884718 0.1922888
0.71531212 -0.43749869 0.19006673
0.72488004 -0.43496925 0.19590735
0.73009109 -0.43403965 0.1992884
1.0657191 -0.43700784 0.19774467
1.0734806 -0.43527532 0.19218476
-1.0806201 -0.42094678 0.19123411
-1.0748934 -0.42497855 0.1944361
-1.0686815 -0.42729706 0.19858125
-0.73324376 -0.42604077 0.19802395
-0.72486192 -0.42734361 0.19249004
0.72565693 -0.42334789 0.19128546
0.73551112 -0.42508999 0.19930334
1.0686924 -0.42523867 0.19924566
1.0753331 -0.42381752 0.19446871
1.080002 -0.42456806 0.19053806
-1.0835304 -0.41368371 0.19121785
-1.074018 -0.416751 0.19781198
-0.74065989 -0.4146432 0.19883136
-0.73418933 -0.41585216 0.19446598
-0.72869861 -0.4193221 0.19175802
0.72873068 -0.4194057 0.1918162
0.73473513 -0.41342458 0.19388619
0.74036694 -0.41407502 0.19837989
1.0766983 -0.41531324 0.19615632
1.0821624 -0.4136548 0.19230597
-1.0849367 -0.40517211 0.19251263
-1.0767111 -0.40591463 0.1989255
-0.74471313 -0.40377909 0.19744582
-0.73694259 -0.40580392 0.1924369
0.73624992 -0.40877825 0.19312954
0.74446821 -0.40279979 0.19686285
1.0774924 -0.40182152 0.19946362
1.0837595 -0.40599647 0.19322559
-1.0905815 -0.39505029 0.19085318
-1.0848846 -0.39471292 0.19553748
-0.7521134 -0.39399296 0.19901282
-0.74511659 -0.39591515 0.19454297
0.73857075 -0.39880368 0.19080584
0.74540156 -0.3931998 0.19365005
0.75241172 -0.39271417 0.19871561
1.0862712 -0.39312702 0.19487303
-1.0916368 -0.38517186 0.19282062
-1.0869664 -0.38511547 0.19659801
-0.75443852 -0.38325977 0.19646646
0.7479372 -0.38727772 0.1931397
0.75616705 -0.38499871 0.19845222
1.0875504 -0.38765872 0.19540228
1.0928948 -0.38499308 0.19185843
-1.0953743 -0.37471399 0.19279289
-1.088351 -0.37474489 0.19844052
-0.76123941 -0.37145299 0.19733045
-0.75459629 -0.37381786 0.19307753
-0.74973279 -0.37779164 0.19078875
0.755059 -0.37486309 0.19381885
0.76219285 -0.37556589 0.19957849
1.0883321 -0.37403023 0.19865951
1.0946593 -0.37589934 0.19303073
-1.0934198 -0.36623618 0.1967849
-1.0891719 -0.36914507 0.19937637
-0.76090777 -0.36586675 0.19501999
-0.75741899 -0.3655079 0.19219767
0.75661176 -0.36594746 0.19173685
0.76422977 -0.36613774 0.19768141
1.0952553 -0.36523455 0.19559233
1.100867 -0.36706394 0.19055095
-1.1019533 -0.35642952 0.19260821
-1.0968568 -0.35485607 0.19719227
-0.77228701 -0.35090455 0.1982916
-0.7645188 -0.35467672 0.19368878
-0.75994176 -0.35664064 0.19088154
0.76492864 -0.35486707 0.19407476
0.77166176 -0.35252503 0.19840549
1.097178 -0.3541078 0.19708143
1.1026813 -0.35347623 0.19275066
-1.1026386 -0.34293607 0.19535308
-1.0985832 -0.34360585 0.19851267
-0.7718215 -0.34634706 0.19628608
-0.76852196 -0.34444153 0.19303654
0.76778364 -0.34318295 0.19198634
0.77225673 -0.34392285 0.19576444
1.0984179 -0.34492224 0.19832866
1.1043011 -0.34466016 0.19357277
-1.1108292 -0.3331756 0.19101174
-1.1042092 -0.3335399 0.19634648
-1.0984569 -0.33803156 0.19996877
-0.78015155 -0.33711129 0.19970112
-0.77743429 -0.33333173 0.19632059
0.76743782 -0.33864531 0.19016734
0.7753585 -0.33755216 0.19606195
0.78135395 -0.33178914 0.1989101
1.1045686 -0.33529887 0.19562528
1.1119473 -0.33059907 0.1907212
-1.1110322 -0.32589936 0.19261107
-1.1058108 -0.32742709 0.19651778
-0.78292942 -0.32369158 0.19750614
-0.77726716 -0.32526392 0.19355087
0.77603704 -0.32629448 0.19291683
0.78362817 -0.32396913 0.19814844
1.1065342 -0.32575694 0.19633037
1.1127892 -0.32315788 0.19183713
-1.1136944 -0.31452987 0.19318923
-1.1079242 -0.3159425 0.19757313
-0.79141986 -0.31011623 0.19976942
-0.7832619 -0.316091 0.19528359
-0.77743483 -0.31569138 0.19055346
0.77817488 -0.3196547 0.19243333
0.7852276 -0.31752732 0.19730476
1.1077257 -0.31347692 0.1983339
1.1165198 -0.31785905 0.19006677
-1.1143801 -0.30467421 0.19501877
-1.1086311 -0.30741048 0.19906436
-0.79256678 -0.30383283 0.19866441
-0.78598511 -0.30464515 0.19369146
0.78555816 -0.30511045 0.1935126
0.79121435 -0.30694756 0.19857118
1.108752 -0.30600947 0.19930515
1.1140542 -0.30388987 0.19547608
1.1203076 -0.30135214 0.19096923
-1.1215352 -0.2929903 0.19166769
-1.1151532 -0.29521388 0.19652456
-0.79432374 -0.293255 0.19703554
-0.78643662 -0.29807514 0.19205824
0.78853863 -0.29575557 0.19308956
0.79429603 -0.29534993 0.19761062
1.1162642 -0.29591748 0.19545987
-1.123391 -0.28606772 0.19150664
-1.1162617 -0.28685835 0.19727167
-0.79668069 -0.28412446 0.19632971
0.78919554 -0.28900367 0.1916931
0.79494148 -0.28326103 0.19468284
0.80163479 -0.28150016 0.19957121
1.1177709 -0.28669158 0.19605097
1.1225421 -0.28777981 0.19187017
-1.1245228 -0.27408603 0.19295624
-1.1166764 -0.27793071 0.19870764
-0.80211306 -0.27575052 0.19831654
-0.79536408 -0.27662277 0.19312996
0.79520583 -0.27672052 0.19303042
0.80265576 -0.2728481 0.19792593
1.1171112 -0.27684632 0.19856256
1.1233909 -0.27307326 0.19409826
-1.1236366 -0.26524085 0.19545664
-1.1191844 -0.26757976 0.19868879
-0.80362588 -0.26475859 0.19640423
-0.79790664 -0.26376221 0.19150986
0.79925358 -0.26128292 0.19188756
0.80421042 -0.26405412 0.19668914
1.1214793 -0.26605192 0.19708689
-1.1321534 -0.25179797 0.19106235
-1.1288191 -0.25408462 0.19337623
-0.80556464 -0.25397995 0.19521773
0.80575782 -0.25547314 0.19573826
0.81026214 -0.252404 0.19868332
1.1256171 -0.25657469 0.19553955
1.130527 -0.25392407 0.19198933
-1.1320834 -0.24304521 0.19286627
-1.1262294 -0.24537213 0.19726543
-0.81302798 -0.24620852 0.19944559
-0.80438417 -0.24519117 0.192118
0.80558759 -0.24595621 0.19328937
1.1270503 -0.24715032 0.1962287
1.1335905 -0.24738666 0.19074818
-1.1335677 -0.23313741 0.19326735
-1.1284115 -0.23422813 0.19742906
-0.81317264 -0.23483853 0.19680505
-0.80780196 -0.23642513 0.19279057
0.80712032 -0.23419346 0.19169068
0.81530905 -0.23289877 0.19808449
1.1267432 -0.23439638 0.19880457
1.1337211 -0.23563221 0.19275023
-1.1339477 -0.22613969 0.19403757
-1.1276302 -0.22673489 0.19925211
-0.81611365 -0.22411482 0.19661199
-0.80878049 -0.22576569 0.1910055
0.81396586 -0.22666043 0.19547033
1.1285863 -0.2271356 0.19838661
1.1338493 -0.22521938 0.1942638
-1.1333176 -0.21424371 0.19641896
-1.1298155 -0.21137199 0.19980812
-0.82056153 -0.2171489 0.19868274
-0.81554246 -0.21420625 0.19393015
0.81611025 -0.21704923 0.19498594
0.8207913 -0.21485148 0.19841564
1.1289392 -0.21872339 0.19939989
1.1340412 -0.21532924 0.19564246
-1.1404597 -0.20421143 0.19198109
-1.136416 -0.204529 0.19532859
-0.8223235 -0.20354503 0.1974334
-0.8168332 -0.20417902 0.19299868
0.81559366 -0.20570035 0.19227262
0.82129085 -0.20254947 0.19637719
1.1339446 -0.20651576 0.19709559
-1.1428493 -0.19313534 0.19169819
-1.1370883 -0.1964734 0.19601806
-0.82424611 -0.19448003 0.19722283
-0.81799167 -0.1940545 0.19194198
0.81859183 -0.19534899 0.19269891
0.82458287 -0.1936215 0.19733149
1.1345569 -0.19762357 0.19796546
1.1439779 -0.19523686 0.19042325
-1.1459885 -0.18210915 0.19076641
-1.1363313 -0.18746237 0.19805682
-0.82701159 -0.18420537 0.19747119
-0.81849343 -0.18608356 0.19076915
0.81962305 -0.18677817 0.1918463
0.82576931 -0.1844601 0.19648999
1.1372497 -0.18430954 0.19777629
1.1441638 -0.18441461 0.19195187
-1.1460989 -0.17431635 0.19158013
-1.139724 -0.17439562 0.19697091
-0.82428557 -0.17701586 0.19377269
-0.81974375 -0.17893866 0.19038297
0.82607007 -0.17508966 0.19490069
0.83239156 -0.17242381 0.1997882
1.1387547 -0.17436826 0.19779497
1.1439714 -0.17570719 0.1932269
-1.1439713 -0.16589236 0.19432171
-1.1391488 -0.16799866 0.19817153
-0.8314808 -0.16633134 0.19807455
-0.82539922 -0.1642324 0.19263881
0.82693976 -0.16237874 0.19364424
0.83182603 -0.16297708 0.19784218
1.1389545 -0.1631002 0.19888227
1.1443049 -0.16495314 0.19414371
-1.1458542 -0.15433854 0.1940152
-0.83335608 -0.15490532 0.19787088
-0.82723808 -0.1525781 0.1923691
0.82514411 -0.15548177 0.19106197
0.83479762 -0.15336859 0.1988425
1.1395414 -0.15550216 0.19923247
1.1451116 -0.15312268 0.19477965
-1.1517744 -0.14384273 0.19017103
-1.1451514 -0.14594741 0.1955463
-0.835697 -0.14311197 0.19800107
-0.82849067 -0.1424018 0.19183694
0.8296507 -0.14363346 0.19300297
0.83413428 -0.14521559 0.19701585
1.1456294 -0.14702486 0.19502108
1.1509922 -0.14305052 0.19092178
-1.1517763 -0.13412219 0.19125345
-1.1469725 -0.13578433 0.19513692
-0.83342236 -0.1340528 0.19467983
0.82838196 -0.13194904 0.19011807
0.83453041 -0.13583009 0.19588923
1.1443433 -0.13468178 0.197487
1.1518371 -0.13303627 0.19132282
-1.1524673 -0.12236862 0.19197866
-1.1465822 -0.12408935 0.19677112
-0.84075892 -0.1244794 0.19973592
-0.83516973 -0.12459744 0.19501472
-0.82912982 -0.1279171 0.19026892
0.82977176 -0.12586468 0.19058377
0.83573216 -0.12514158 0.19555184
0.84073842 -0.12385531 0.19964893
1.1459682 -0.1261811 0.19705859
1.1519099 -0.12414042 0.19224136
-1.1533238 -0.11570551 0.191751
-1.1473826 -0.11373782 0.19694307
-0.84104359 -0.11942167 0.199413
-0.83645415 -0.11409725 0.19493166
0.83521217 -0.11592758 0.19408369
1.1480608 -0.11319114 0.19640215
1.1522241 -0.11249926 0.19290265
-1.1507571 -0.10571054 0.19460693
-1.1470302 -0.10543718 0.19779956
-0.83604091 -0.1043189 0.19349109
0.83756399 -0.1050447 0.19486213
0.84139854 -0.10666991 0.19829142
1.1480954 -0.10739963 0.19676091
1.15416 -0.10357434 0.19185196
-1.1543878 -0.094903655 0.19223896
-1.1478266 -0.093533576 0.19791919
-0.8433336 -0.095703334 0.19870749
-0.83656311 -0.093720384 0.19275139
0.83780479 -0.09348359 0.19377673
0.84439462 -0.094196126 0.19943804
1.1465294 -0.097649664 0.19874814
1.1536785 -0.092834271 0.1929819
-1.1537006 -0.085696995 0.19344151
-1.1477699 -0.08639802 0.19844575
-0.84193641 -0.084176347 0.19643044
-0.8356117 -0.086906046 0.19125883
0.83662456 -0.087608427 0.19216466
0.84327418 -0.086832576 0.19775999
1.1478102 -0.0848248 0.19851689
1.1533493 -0.085160628 0.19377665
-1.1539841 -0.076263785 0.19383232
-1.1493405 -0.079836965 0.19754782
-0.84331512 -0.076055259 0.19706039
-0.8378005 -0.077465251 0.19245803
0.83647424 -0.075423516 0.19119141
0.84398383 -0.074338548 0.19751476
1.148446 -0.071219303 0.19888735
1.1549091 -0.074543081 0.19315995
-1.1539103 -0.066215768 0.19456877
-1.1485933 -0.064186417 0.19923317
-0.84304518 -0.065794341 0.1961427
-0.83804011 -0.064501569 0.19179323
0.8381595 -0.068100832 0.19213593
0.84242374 -0.065351315 0.19558358
1.1482008 -0.06967286 0.19919989
1.1533906 -0.064942077 0.19509673
-1.1546499 -0.056797616 0.19440417
-1.1488347 -0.055039451 0.19940995
-0.84509796 -0.053890657 0.19709317
-0.83858204 -0.053566016 0.19152175
0.83861667 -0.057151116 0.19179145
0.84410518 -0.055421475 0.19635007
1.1486163 -0.056675792 0.19955987
1.1543186 -0.054012306 0.19474936
-1.1533657 -0.044954825 0.19576581
-1.1493906 -0.049130477 0.19906734
-0.8444286 -0.043552976 0.19589549
-0.83853656 -0.046633527 0.19101839
0.83815777 -0.049544144 0.19089071
0.84274864 -0.04391418 0.19448742
1.1490444 -0.049639057 0.19935161
1.1558584 -0.043307509 0.1936737
-1.1544428 -0.035602178 0.19505508
-0.84705657 -0.034884464 0.1979121
-0.83920956 -0.032746166 0.19116248
0.83905095 -0.033880457 0.19105244
0.84532261 -0.034152787 0.19641474
1.156545 -0.036007375 0.19325066
-1.1540323 -0.02286257 0.1956905
-1.149967 -0.020193668 0.19922227
-0.84504104 -0.023858689 0.19594409
-0.83815753 -0.024132218 0.1900714
0.83845872 -0.026688706 0.19038579
0.84533006 -0.023277922 0.19617791
1.1498098 -0.024972975 0.19924954
1.1544851 -0.022564309 0.19531055
1.1601036 -0.026135389 0.19043234
-1.1556765 -0.014434055 0.19447494
-0.84500486 -0.014084792 0.19569468
0.83917379 -0.014343921 0.19072048
0.84522521 -0.016765263 0.19594276
1.1553773 -0.012932112 0.19476408
1.1603273 -0.019076962 0.19039907
-1.1549295 -0.0062544113 0.19529581
-0.85006559 -0.0053022848 0.19982034
-0.84493303 -0.0037308245 0.1954018
0.84654337 -0.0062542195 0.19683349
1.1546495 -0.0038730523 0.19558817
1.1604292 -0.0033856656 0.19066295
-1.1603571 0.0087520462 0.19060457
-1.156687 0.0021119269 0.1938874
-0.84458441 0.0070365593 0.19517797
-0.83988959 0.0094532371 0.1912224
0.83951515 0.0073482804 0.19085559
0.84403038 0.0050116521 0.1946595
0.85019147 0.002628176 0.19986805
1.1534424 0.0041647046 0.1966126
-1.1606579 0.013363832 0.19024453
-1.154498 0.015005653 0.19546866
-0.84482229 0.016100254 0.19558385
-0.83984572 0.018315695 0.19138309
0.83974361 0.016673271 0.19125921
0.84493983 0.015037934 0.19566043
1.1496559 0.01268969 0.19965568
1.1529434 0.013397808 0.19683224
-1.1605949 0.021151228 0.19012414
-1.1551019 0.025873257 0.19470979
-1.1497403 0.025953731 0.19928698
-0.84520447 0.024700431 0.1961025
-0.83838868 0.025186535 0.19029237
0.84574473 0.022836179 0.19652218
1.1549113 0.024192471 0.1949102
1.1601963 0.028044656 0.19031028
-1.1533855 0.034531347 0.19598192
-1.1492174 0.037545882 0.19947428
-0.8434779 0.033686399 0.1948289
-0.83878249 0.03329451 0.19081001
0.83850557 0.034533814 0.19060123
0.84594762 0.034529097 0.19695696
1.1496012 0.03275089 0.19925368
1.1538688 0.034182899 0.19557691
1.160116 0.035260085 0.19021749
-1.1556869 0.04430921 0.19379787
-1.1497195 0.048896816 0.19879174
-0.84479743 0.044254474 0.19624288
-0.83847183 0.042730324 0.19075565
0.83807474 0.040695608 0.19037107
0.84450573 0.044254135 0.19598424
1.1497812 0.042170458 0.19888936
1.1561998 0.045979474 0.19332235
-1.1533935 0.053676374 0.19554695
-1.1483254 0.056482345 0.19981246
-0.84363562 0.055609155 0.19596279
-0.83903027 0.051686198 0.19177739
0.8392753 0.058356453 0.1924333
0.84452534 0.052628197 0.19652084
1.1491104 0.051799804 0.19924687
1.155105 0.055375014 0.1940473
-1.1553192 0.066358745 0.19335915
-1.1488978 0.065438055 0.19889003
-0.84373707 0.064838067 0.19666776
-0.83874643 0.061043862 0.19216281
0.83678073 0.066161565 0.19083183
0.84381646 0.063577034 0.19665097
1.1484704 0.0674702 0.19911784
1.1558231 0.065957978 0.19295697
-1.1541212 0.075391196 0.19377416
-1.1486154 0.078060091 0.19828448
-0.84131086 0.07437782 0.19524078
-0.83680964 0.073053524 0.19131824
0.83724535 0.072734699 0.19166818
0.843243 0.076864719 0.19705325
1.153286 0.07487262 0.19452007
-1.1546472 0.083629601 0.19277395
-1.1480076 0.084995687 0.19833726
-0.84327936 0.083952874 0.19756366
-0.83769834 0.084424667 0.19283742
0.83794206 0.087585241 0.19325684
0.84446102 0.083422363 0.1985302
1.1481459 0.082817666 0.19836548
1.1550916 0.085963808 0.19223878
-1.1539094 0.09581542 0.19258553
-1.1472572 0.095957279 0.19824173
-0.84153229 0.094696365 0.19706944
-0.83696634 0.097415268 0.19350506
0.83694953 0.093851082 0.19309342
0.84312856 0.095434912 0.1985039
1.1471781 0.095011562 0.19837244
1.1537601 0.093858808 0.19284381
-1.1469389 0.1053714 0.19788176
-0.84186798 0.10343199 0.198328
-0.83703637 0.10386237 0.19428341
0.83606529 0.1061566 0.19371675
0.84229028 0.10489179 0.19884852
1.1445514 0.10812054 0.19973101
1.1529636 0.10553566 0.19273941
-1.1529406 0.11457826 0.19215296
-1.1476635 0.11491427 0.19662507
-0.84119892 0.11380917 0.1989186
-0.83587694 0.11474836 0.19451539
0.83608484 0.11728539 0.19497447
0.84161067 0.11317884 0.19919705
1.1441047 0.119541 0.19934592
1.15312 0.11597058 0.19190684
-1.1515336 0.12176877 0.1928239
-1.146158 0.12507735 0.19701736
-0.84042275 0.12828244 0.1998753
-0.83627343 0.12677102 0.19619204
0.83456856 0.12391257 0.1944292
1.1455979 0.12377596 0.19764046
1.1529847 0.12513328 0.19123214
-1.1504946 0.13665579 0.19205637
-1.1449862 0.13432123 0.19698262
-0.83299178 0.1331014 0.19419298
-0.82877576 0.13136148 0.1903574
0.82803375 0.13323681 0.19002612
0.8349846 0.13332805 0.19588563
1.1443386 0.13646683 0.197292
-1.1512063 0.14568019 0.19044718
-1.1429113 0.14496252 0.19755343
-0.83381003 0.1460969 0.19688065
-0.82598799 0.14960317 0.19085558
0.82651132 0.14615288 0.19075814
0.83286333 0.14622827 0.19610588
1.1452572 0.14416242 0.1956557
1.151123 0.14648762 0.19042787
-1.1458592 0.15669265 0.19374821
-0.83186221 0.15414639 0.19649763
-0.82719231 0.15470469 0.1926616
0.82552886 0.15798351 0.19177487
0.83230084 0.15413631 0.19686463
1.1387666 0.1587894 0.19952215
1.1431944 0.15392378 0.19631429
-1.1455251 0.16364641 0.1932558
-1.1388092 0.16704687 0.19856523
-0.83202666 0.16265547 0.19796063
-0.82606059 0.16591944 0.19345699
0.82645339 0.16457796 0.19357817
0.83272791 0.16391522 0.19874603
1.1387693 0.16580784 0.19873726
1.1438645 0.16444764 0.19457319
-1.1443015 0.17420031 0.19311538
-1.1372697 0.17076579 0.19945452
-0.83176613 0.17012471 0.19890478
-0.82505131 0.17575793 0.19420046
-0.81949615 0.17811173 0.19001238
0.82603645 0.17622621 0.195099
0.8321892 0.17476045 0.19998202
1.1388936 0.17738687 0.19734079
1.1445668 0.17706093 0.19257179
-1.1428796 0.1840529 0.19307101
-1.1372149 0.18784054 0.19725576
-0.82572001 0.18452132 0.19646131
-0.81942123 0.18308546 0.19094209
0.81849563 0.18826334 0.19120568
0.82563108 0.184048 0.19629289
1.1367697 0.18714674 0.19773777
1.1455488 0.18430765 0.19080502
-1.1447611 0.19152652 0.19034286
-1.1353714 0.19628865 0.1974891
-0.82255399 0.19694845 0.19630939
-0.8170855 0.1983517 0.19204636
0.81700993 0.1943018 0.19117565
0.82279474 0.19337408 0.19579646
1.1367399 0.19488382 0.19655813
1.1422166 0.19482592 0.19196646
-1.1408914 0.2071965 0.19115405
-1.1352013 0.20572101 0.19616356
-0.821091 0.20422702 0.19654562
-0.81541044 0.20585211 0.19215056
0.81733274 0.20845163 0.19426584
0.82219088 0.20519343 0.19765195
1.1354609 0.20555407 0.19597121
1.1404607 0.20679277 0.19157828
-1.133108 0.21403371 0.19662797
-1.1295829 0.21660215 0.1991892
-0.81554854 0.21632576 0.1943541
0.8147974 0.21585254 0.19364578
0.82174957 0.21061075 0.19836575
1.1291506 0.21571851 0.19969001
1.134089 0.2134729 0.19589096
-1.1335611 0.22358313 0.19476055
-0.81662476 0.22547147 0.19735983
-0.80841607 0.22379564 0.19022886
0.80978 0.22098809 0.19066495
0.81581056 0.22315213 0.19613004
1.1290752 0.22883606 0.19771105
1.1347592 0.22557339 0.193444
-1.1339287 0.23507181 0.19266295
-1.1269037 0.23524879 0.19853687
-0.81358337 0.23427297 0.19700418
-0.8071785 0.23627958 0.19224441
0.80572993 0.23540998 0.19084692
0.81378418 0.23385392 0.19706708
1.1285639 0.23511407 0.19716311
1.135397 0.23565038 0.19133946
-1.1341403 0.24490368 0.19078667
-1.1251305 0.24567036 0.19811875
-0.81199694 0.24435997 0.19815238
-0.80661744 0.24461281 0.19380695
0.80487651 0.24515729 0.19251311
0.81099552 0.24877714 0.19840403
1.1267341 0.24584095 0.19675234
1.1328359 0.24189119 0.19246984
-1.1316134 0.25395021 0.19108158
-1.1262116 0.25534207 0.19529149
-0.81013542 0.25620043 0.19950077
-0.8045761 0.25399137 0.19441061
-0.79908019 0.2547392 0.19009
0.80530161 0.25552061 0.1953761
1.1276262 0.25498113 0.19418845
1.1313615 0.25462133 0.1911571
-1.1255206 0.26654938 0.19363026
-0.80317098 0.2632741 0.19562063
-0.79878664 0.26281071 0.19194728
0.79911613 0.26715827 0.19345243
0.80236393 0.26440451 0.19528355
1.1229551 0.26393044 0.19628407
-1.1217532 0.27502564 0.19506955
-1.1180469 0.27632153 0.19789013
-0.80054545 0.27237272 0.19609082
-0.79572845 0.27425325 0.19274768
0.7966423 0.27594975 0.19396743
0.80283701 0.27425078 0.19847187
1.118083 0.27606398 0.19791158
1.1252559 0.27391511 0.19238128
-1.1235495 0.28384742 0.19181778
-1.1185234 0.2839272 0.19597733
-0.79491889 0.2850756 0.19518214
-0.78940779 0.28863493 0.19175887
0.78950912 0.28863597 0.19184065
0.79508555 0.28348786 0.19486353
0.80120599 0.28231543 0.19945829
1.1163143 0.28698716 0.1972023
1.1210994 0.28978312 0.19266942
-1.1228023 0.29371554 0.1904704
-1.1147513 0.29518408 0.19685583
-0.79297674 0.29563957 0.19663075
-0.78714418 0.29380685 0.19141081
0.78865182 0.29455972 0.19283968
0.79458064 0.29557231 0.19790331
1.1141095 0.29460633 0.19750616
1.1225815 0.29287207 0.19082209
-1.1201042 0.30271938 0.19080424
-1.1147199 0.30578518 0.19447102
-1.1095827 0.30209851 0.19957384
-0.79134864 0.30458182 0.19793361
-0.78615701 0.30658591 0.19447383
0.78453523 0.30645424 0.19313791
0.7931962 0.30316415 0.19898154
1.1136405 0.30549523 0.1954255
1.1201875 0.30365711 0.19050848
-1.1135596 0.31404489 0.19341725
-1.1076777 0.31503868 0.19799438
-0.7839635 0.31563941 0.19568969
0.77869433 0.31449449 0.1911563
0.78377426 0.31469011 0.19523001
1.1078421 0.3176221 0.19723277
1.1136844 0.31500679 0.19308159
-1.1115917 0.32583213 0.19216925
-1.1057674 0.32438499 0.19729151
-0.78493166 0.32342672 0.199
-0.77548718 0.32745689 0.19286279
0.77569675 0.32610491 0.19258627
0.7834751 0.32513905 0.19841012
1.1062876 0.3246485 0.19680139
1.1122152 0.32240403 0.19249019
-1.1047584 0.33579385 0.19534977
-0.78149438 0.33249199 0.19925077
-0.77516788 0.33510828 0.19511242
-0.76873279 0.33662352 0.19052841
0.77372038 0.33623961 0.19433983
0.7813201 0.33219033 0.19901457
1.0988388 0.33805132 0.199651
1.1047723 0.33571619 0.19535713
-1.1045592 0.34555367 0.19314468
-1.0987328 0.34438896 0.19820017
-0.77217704 0.34530622 0.19618143
-0.76565909 0.34894252 0.19245896
0.76754129 0.34579116 0.19276759
0.77392006 0.34513918 0.19747768
1.0982777 0.34681436 0.19798441
1.1045156 0.34470582 0.19338609
-1.0993918 0.35782459 0.1943741
-0.76434094 0.35600731 0.19404098
0.75873613 0.35768294 0.19033526
0.76503962 0.35580155 0.19450408
0.77283108 0.35267532 0.19936243
1.0955476 0.35735086 0.19758298
1.1032088 0.35360846 0.19228101
-1.1007614 0.36134106 0.19226819
-1.0952585 0.36392429 0.19596341
-1.0899787 0.3662287 0.19955833
-0.76621211 0.36253229 0.1978839
-0.75610971 0.36558813 0.19121757
0.75813717 0.36673608 0.19320324
0.76391327 0.36398146 0.19664419
1.0952847 0.36456433 0.19575973
1.1004152 0.36567178 0.191312
-1.0963643 0.37642324 0.19150814
-1.0895089 0.37706637 0.19684586
-0.76089746 0.37388825 0.19796252
-0.75677508 0.37439284 0.19496913
0.75598139 0.37281382 0.19377631
0.76196504 0.37395313 0.19880962
1.0880303 0.37683958 0.19810128
1.0942417 0.37393886 0.19392617
-1.0932873 0.38460609 0.19165255
-1.0869913 0.38560867 0.19643733
-0.75485241 0.38515988 0.19755371
-0.74805403 0.38547876 0.19249409
0.74833691 0.3877663 0.19363895
0.75408912 0.38606045 0.19730802
1.0866462 0.38671795 0.19639878
1.0925122 0.38404498 0.19243689
-1.0913135 0.39577299 0.19005765
-1.0858163 0.39321679 0.19521382
-0.75278252 0.39103168 0.19830807
-0.74634546 0.39539853 0.19525516
-0.73950064 0.39789212 0.19113243
0.74406308 0.39437973 0.19312601
0.75157481 0.39450634 0.19881772
1.0785692 0.39842284 0.19956563
1.0822104 0.3940835 0.19787067
1.0906385 0.3922177 0.19161509
-1.0855273 0.40378606 0.1924323
-1.0768025 0.40652061 0.19867903
-0.7436564 0.40397343 0.19673176
-0.73611993 0.40644237 0.19207965
0.73797381 0.40097207 0.19124143
0.74429399 0.40347674 0.19700794
1.0774826 0.40513381 0.19852681
1.0854148 0.40502679 0.19216903
-1.0834949 0.41151762 0.19186422
-1.0756984 0.41667098 0.19651438
-0.74192017 0.41462591 0.19977064
-0.73544657 0.41586968 0.1954172
-0.72854817 0.41779023 0.19102059
0.72807044 0.41679183 0.19025485
0.73696196 0.41602403 0.19661784
0.74125332 0.41364419 0.19886971
1.0740401 0.41703048 0.19770828
1.0833871 0.41369829 0.19129732
-1.0805789 0.42222747 0.19084796
-1.0753919 0.42500791 0.19403313
-0.73320645 0.42505607 0.19758682
-0.72450352 0.42646423 0.1918364
0.72582358 0.42718431 0.19311953
0.7311607 0.42581791 0.19639729
1.0730993 0.42198572 0.19683076
-1.0745202 0.43376461 0.1918581
-1.0682882 0.43593517 0.19606756
-0.73260039 0.43090224 0.19971573
-0.72587174 0.43594795 0.19706655
-0.71691948 0.43619612 0.19065601
0.71728468 0.43916708 0.19224834
0.72550189 0.43334585 0.19563559
0.73064876 0.43450701 0.19990323
1.0666541 0.43513027 0.19762047
1.0754424 0.43221387 0.19163704
-1.0706651 0.44569898 0.19099909
-1.0654981 0.44522396 0.19523282
-0.72356385 0.44187534 0.19803137
-0.71630919 0.44388461 0.1936436
0.7099098 0.44816524 0.1908928
0.7169565 0.44714111 0.19556895
0.7227807 0.44518647 0.19893901
1.0587004 0.44814298 0.19964406
1.0655822 0.44473776 0.19532543
-1.0640033 0.45355138 0.19369006
-1.0574853 0.45678097 0.19777893
-0.71316475 0.45353895 0.19566277
-0.7073307 0.45685297 0.19289266
0.70665765 0.45813489 0.19297417
0.71366125 0.45400831 0.196234
1.0583837 0.45632505 0.19721884
1.0644847 0.45514235 0.1927899
-1.0621705 0.46397075 0.19173008
-1.0568483 0.46278742 0.19631791
-0.71311694 0.46123862 0.19906512
-0.70683891 0.46485642 0.19632547
-0.6976285 0.46576542 0.19028032
0.69799095 0.46672162 0.1909982
0.70333827 0.46643513 0.19462457
1.0544449 0.4659946 0.19715947
1.0617257 0.4690485 0.19042093
-1.0546138 0.4749786 0.19387366
-1.0480157 0.4770661 0.19819397
-0.70300525 0.47666642 0.19934124
-0.69616669 0.47330174 0.19289798
-0.68816638 0.47928238 0.19015911
0.69777036 0.47507128 0.19488339
0.7025606 0.47498935 0.1982166
1.048578 0.47489566 0.19855869
1.0554338 0.47646627 0.19269426
-1.0527763 0.48611271 0.19119534
-1.0457151 0.48441228 0.19726607
-1.0398192 0.4895038 0.19993983
-0.69254237 0.4841406 0.19559121
-0.68255663 0.48803711 0.19044578
0.68457282 0.4883182 0.19200137
0.69375151 0.48396373 0.19635692
1.0455357 0.48435071 0.19742696
1.0527749 0.48465014 0.19173436
-1.043386 0.49587631 0.19484545
-1.0370289 0.49866489 0.19872199
-0.69229031 0.49304649 0.19972342
-0.68383223 0.49451965 0.19448096
-0.67809057 0.49561846 0.19108628
0.67870462 0.49355808 0.19042161
0.68555409 0.49570099 0.19628388
1.0388021 0.49425608 0.19897625
1.0442133 0.49421757 0.19481762
1.0505674 0.49283803 0.19042513
-1.0407993 0.50303006 0.19420893
-1.0360099 0.50461721 0.19731839
-0.68550259 0.50254154 0.19970158
-0.67605835 0.50492573 0.1945402
-0.66983426 0.50866711 0.19226733
0.66927689 0.50796634 0.1915251
0.67528576 0.50392383 0.19349547
0.6824466 0.50499451 0.19890605
1.0369594 0.50378656 0.19689177
1.0411085 0.50377893 0.19369508
-1.0406793 0.51069367 0.19148269
-1.0339411 0.51672459 0.1944605
-1.0295882 0.5189032 0.19701593
-0.6733309 0.51366854 0.19723862
-0.66349453 0.51661831 0.19210562
0.66634917 0.51607472 0.19375794
0.67601842 0.51294577 0.19868444
1.0284017 0.51520461 0.1992912
1.0355148 0.51317346 0.19455306
-1.0313642 0.52594471 0.19301637
-1.0279069 0.52589726 0.19564851
-0.66320187 0.52648038 0.19703656
0.65745449 0.52465409 0.19219102
0.66618216 0.52409655 0.19781686
1.0270065 0.52545464 0.19650626
1.0328941 0.52654004 0.19160326
-1.0255003 0.53463286 0.19389977
-1.0196866 0.53493059 0.1981435
-0.66189653 0.53205055 0.19904886
-0.65571725 0.53202355 0.19491692
-0.64582026 0.53817964 0.19186851
0.64771843 0.53564352 0.1916945
0.65638721 0.53498846 0.19697525
0.66193569 0.53229243 0.19920123
1.0178943 0.53694624 0.19866742
1.0247605 0.53369445 0.19483778
1.0312932 0.53222942 0.19053006
-1.0246614 0.54158121 0.191697
-1.0165738 0.54594201 0.19599165
-0.65558058 0.54092515 0.19973284
-0.6437248 0.54438478 0.19395013
-0.63780808 0.54695958 0.19153504
0.63823313 0.54705435 0.19186382
0.64594579 0.54625118 0.19642875
0.65292764 0.54202104 0.19861734
1.0098561 0.54952985 0.19957274
1.0170357 0.54512787 0.19597664
1.0220667 0.54524136 0.1921529
-1.0146747 0.55512041 0.19367583
-1.0067991 0.55671602 0.19893853
-0.64104205 0.55145651 0.19613121
-0.63517898 0.55616862 0.19493681
-0.62789297 0.55659866 0.19044206
0.62915701 0.55450851 0.19010346
0.63637817 0.55221033 0.19351962
0.6427502 0.55244309 0.1977884
1.0065629 0.55500281 0.19981423
1.0158453 0.55380285 0.19333386
1.0204939 0.55215096 0.19051698
-1.0119978 0.56546348 0.19146903
-1.0045451 0.56528646 0.19713691
-0.63197929 0.56139165 0.1957562
-0.62633902 0.56329358 0.19319636
0.62557459 0.56357908 0.19287749
0.63493651 0.56335199 0.19877568
1.0059879 0.56474334 0.19627509
1.0111551 0.56639868 0.19172037
-1.0049541 0.57521075 0.19278392
-0.99767196 0.57705814 0.19745775
-0.62346977 0.57442725 0.19789477
-0.61491901 0.57452577 0.19265342
-0.60898614 0.57692289 0.19038633
0.6078589 0.5781765 0.1904249
0.61548841 0.57385409 0.19261126
0.62421173 0.57362068 0.19788027
1.0052843 0.57577044 0.19229868
-1.0015688 0.58111441 0.19280824
-0.99562263 0.58479249 0.1954979
-0.98911691 0.58690369 0.19929475
-0.61463284 0.58518785 0.19874646
-0.60318583 0.58616835 0.19222891
-0.59954083 0.5875203 0.19076504
0.60810357 0.58509952 0.194648
0.61476034 0.58223605 0.19708952
0.98724115 0.58946621 0.19951728
0.99695176 0.58520257 0.19434664
1.0019048 0.58216935 0.19209242
-0.99382889 0.59295201 0.19316202
-0.98469305 0.59593248 0.1984868
-0.60248798 0.59628445 0.19774565
-0.59662169 0.59666646 0.19435863
0.59409744 0.59534723 0.19208822
0.60402542 0.59357113 0.19710279
0.98425937 0.59775931 0.19798732
0.99483198 0.59174001 0.19297256
-0.99173605 0.60006505 0.1915113
-0.98436368 0.60526687 0.19455975
-0.59456569 0.60441488 0.19792904
-0.58524662 0.60467839 0.1926118
0.5780859 0.60893309 0.19103742
0.58506322 0.60606492 0.19336326
0.5945524 0.60509241 0.19834115
0.97950929 0.60306489 0.19907911
0.9822073 0.60487163 0.19630718
0.99102259 0.60106659 0.19158408
-0.98229963 0.61334723 0.1924562
-0.97594464 0.61442101 0.19660634
-0.58500183 0.61493504 0.1988243
-0.57666427 0.61664218 0.19497897
-0.56799555 0.61788261 0.1906496
0.56658596 0.61933446 0.19072044
0.5748778 0.61524874 0.19306479
0.58377022 0.61338466 0.19713919
0.97433048 0.61575836 0.19718523
0.98163444 0.61631393 0.19161652
-0.97384477 0.62452888 0.19362381
-0.96617579 0.62673461 0.19818771
-0.57342649 0.62515581 0.19835107
-0.56447065 0.62273329 0.19160385
-0.55678982 0.62913823 0.19135708
0.56362855 0.62497663 0.19250107
0.57323879 0.62363404 0.19729763
0.96665359 0.62584376 0.19826041
0.97335809 0.6240797 0.19417886
-0.97310108 0.6300503 0.19170076
-0.96639347 0.63440907 0.19438532
-0.95857298 0.6372323 0.19852546
-0.56554008 0.63285583 0.19862755
-0.55659616 0.63490993 0.19499931
-0.54740334 0.63780403 0.19177867
0.54893529 0.6364066 0.19172078
0.55599225 0.63432133 0.19428174
0.56446481 0.6330449 0.19816294
0.95831853 0.63657767 0.19902138
0.96431255 0.63513589 0.1954987
0.97253746 0.63180649 0.19131866
-0.96096528 0.64335084 0.19388016
-0.95745981 0.64735824 0.19440904
-0.5518775 0.64170092 0.1967929
-0.54518431 0.64600813 0.19587727
-0.53644633 0.64818311 0.19244182
0.53855723 0.64653724 0.19254375
0.54635894 0.64618558 0.19664428
0.55176479 0.64148617 0.19659083
0.95525074 0.64505875 0.19707733
0.96398658 0.64367551 0.19159576
-0.95476997 0.65440702 0.19289193
-0.94684279 0.65556341 0.1979139
-0.54010606 0.65176481 0.19679941
-0.53627694 0.65569735 0.19723341
-0.52718925 0.65632689 0.19274537
0.51821661 0.65960628 0.19030139
0.52421272 0.65826237 0.1925091
0.53498846 0.65748411 0.19767541
0.54093689 0.6515125 0.19709644
0.94634056 0.65408033 0.19898526
0.95587891 0.65408617 0.19226652
-0.95091265 0.66163087 0.19211213
-0.94556886 0.66519868 0.19414812
-0.93963742 0.6618616 0.19993941
-0.52454317 0.66407824 0.1966231
-0.51587093 0.66613388 0.19350596
0.50819689 0.66688204 0.19002172
0.51742154 0.66410494 0.19293711
0.52375323 0.66562665 0.19726171
0.53241056 0.66083825 0.19851878
0.93792039 0.66817021 0.19809556
0.94395381 0.6637522 0.19598535
-0.94279402 0.67170203 0.19295487
-0.93513381 0.67426765 0.19710693
-0.92913485 0.67861384 0.1990989
-0.52029967 0.67167222 0.19956331
-0.51369131 0.67408156 0.19775936
-0.50504786 0.67483157 0.19377223
-0.49687585 0.67740583 0.19126678
0.49901521 0.67867124 0.1932372
0.50609678 0.67570901 0.19491248
0.51468486 0.67445964 0.19853222
0.92918932 0.67874646 0.19899292
0.93377507 0.67549407 0.19744146
0.94328338 0.67395872 0.19151832
-0.93365586 0.68515921 0.19263022
-0.92747462 0.68843889 0.19511428
-0.50160635 0.68400633 0.19820106
-0.49372527 0.68594164 0.1955958
-0.48779956 0.68616492 0.19287144
0.48565975 0.68828732 0.19333035
0.49662256 0.68523496 0.1965263
0.50747859 0.68095082 0.19918415
0.92720854 0.68480802 0.19718297
0.93470705 0.68488145 0.19205728
-0.92576939 0.69376892 0.19349794
-0.9159528 0.69546002 0.19927214
-0.48301065 0.69645244 0.19779751
-0.47600704 0.69484949 0.19327962
-0.4660466 0.69856578 0.19107626
0.4664093 0.69747812 0.19048609
0.47560295 0.69554186 0.19357169
0.48368964 0.6957885 0.19765851
0.91840631 0.69366831 0.19854105
0.92622089 0.69357139 0.19329455
0.93232322 0.69034767 0.19083503
-0.91600817 0.70343113 0.19508898
-0.90843374 0.70872355 0.19747052
-0.47316676 0.70064056 0.19598268
-0.46451622 0.70382452 0.19403847
-0.45601305 0.70703095 0.19233494
0.44837245 0.70916235 0.190441
0.45764646 0.70741194 0.1933264
0.464288 0.70332485 0.19357625
0.47389233 0.70168394 0.19706847
0.90736699 0.70805812 0.19853958
0.91504812 0.70454705 0.1951592
-0.91127324 0.715321 0.19211455
-0.90547884 0.71645957 0.19544987
-0.46444163 0.71012449 0.19843817
-0.4538517 0.71518832 0.19727644
-0.44566655 0.71600837 0.19421995
-0.43697309 0.71698427 0.19105016
0.43535334 0.71791077 0.19100203
0.44437137 0.71371531 0.19197154
0.45446151 0.7149415 0.19736898
0.4644129 0.71064705 0.1987922
0.90528816 0.71478868 0.19644813
0.9123742 0.7133587 0.19238876
-0.90457106 0.72344005 0.19243464
-0.89575469 0.7251628 0.19746691
-0.44619644 0.72296429 0.1995236
-0.43428162 0.72645205 0.19674551
-0.42469925 0.72607815 0.19219558
-0.4189961 0.72854525 0.19150998
0.42479262 0.72720677 0.1930594
0.43359905 0.72615999 0.19622807
0.44521305 0.72156495 0.19806528
0.88913929 0.72979158 0.199251
0.89648879 0.72535884 0.19687739
0.90406227 0.72483754 0.19205259
-0.90078002 0.73148996 0.19074582
-0.8934803 0.73743761 0.19218823
-0.88799065 0.73544425 0.19686078
-0.43232173 0.73093385 0.19913538
-0.42428672 0.73340225 0.19736449
-0.41498494 0.734393 0.19426541
-0.40119177 0.73759168 0.19104408
-0.39968389 0.73966312 0.1919847
0.40430298 0.7365855 0.19155708
0.41732252 0.73552459 0.196068
0.42586136 0.73390913 0.19845434
0.43013388 0.73174 0.19874603
0.88635403 0.73703176 0.19704308
0.89362001 0.73409867 0.19395019
-0.88435364 0.744919 0.19396625
-0.87741917 0.74607372 0.19783056
-0.41105247 0.74218488 0.19851263
-0.40388262 0.7435261 0.19659683
-0.39484087 0.74577039 0.19459593
-0.38880587 0.74749827 0.19343302
0.38613361 0.74781895 0.19258673
0.39676452 0.74500495 0.19480547
0.40111011 0.74584293 0.1972062
0.4118441 0.74188554 0.19861066
0.87441444 0.74752086 0.19897966
0.88741779 0.7430169 0.19303107
0.89108074 0.74167407 0.19139645
-0.88007677 0.75477409 0.19127648
-0.87294096 0.75312948 0.19682489
-0.86838317 0.75596499 0.19821253
-0.39293972 0.75180799 0.19835408
-0.38327935 0.75505376 0.19694097
-0.37359834 0.75673443 0.19464555
-0.36574143 0.75680929 0.19181342
0.36477488 0.75805831 0.19242111
0.37534803 0.75564635 0.19445008
0.38501787 0.75448537 0.19719639
0.39528194 0.75137013 0.19898024
0.86765355 0.75603431 0.19864805
0.87373954 0.7545296 0.19552916
-0.87000978 0.76776201 0.19060995
-0.86509925 0.76498485 0.19534108
-0.37421381 0.76247066 0.1992954
-0.36576447 0.76290184 0.19652011
-0.35478339 0.76655096 0.19529507
-0.34710777 0.76877791 0.19418913
-0.33914334 0.76965457 0.19207989
0.33748421 0.76913959 0.19113094
0.34528512 0.76908493 0.19375545
0.35539493 0.76468325 0.1940797
0.36487615 0.76332003 0.19651583
0.3725172 0.76270747 0.19885401
0.85951811 0.7693854 0.19652514
0.86595017 0.76523709 0.19464834
0.87334156 0.76241893 0.19141014
-0.86297125 0.77292633 0.19231708
-0.85473925 0.77580392 0.19585474
-0.84836102 0.77798545 0.19853231
-0.34623042 0.77371711 0.19769773
-0.33708802 0.77517563 0.19576587
-0.32651106 0.77606159 0.19300704
-0.31537527 0.77910328 0.19176708
0.31851962 0.77865601 0.19244201
0.32168874 0.77645642 0.19174194
0.33401671 0.77500546 0.19462734
0.34913206 0.77397871 0.19894418
0.3548052 0.77046371 0.19832037
0.84978551 0.77930689 0.19687249
0.85464972 0.77547252 0.19611298
0.86304301 0.77382272 0.19176005
-0.8529579 0.78157043 0.19357513
-0.84671044 0.78633326 0.19464578
-0.83829468 0.78814065 0.19879827
-0.33332458 0.78077555 0.19895555
-0.32363304 0.7826876 0.19729616
-0.31374842 0.78360164 0.19478588
-0.30504349 0.78668624 0.19438729
-0.29381779 0.78737199 0.19159742
-0.28479362 0.78959161 0.19081131
0.29569435 0.78682083 0.19168872
0.30395812 0.78565639 0.193213
0.31417912 0.7848714 0.19592889
0.32382762 0.78304195 0.19763944
0.33036023 0.78215802 0.19907759
0.84526807 0.78513801 0.1962429
0.85358453 0.78438187 0.19153352
-0.84136307 0.79516125 0.1927678
-0.83539081 0.79401642 0.19714229
-0.29526356 0.79610884 0.19904593
-0.28451523 0.79469544 0.19484229
-0.27506119 0.796808 0.19384748
-0.2655381 0.79598284 0.19046699
-0.25377131 0.79993182 0.1905528
0.25309908 0.79962617 0.19013925
0.26768559 0.79895121 0.19347006
0.27357882 0.79668576 0.19332626
0.28484404 0.79395795 0.19434215
0.29330438 0.79524899 0.19779472
0.3045201 0.79184848 0.1983486
0.83604586 0.79634833 0.19536522
0.84517848 0.79364657 0.1912946
-0.83481038 0.8029294 0.19226019
-0.82517493 0.80625248 0.19627716
-0.8182658 0.80956399 0.19861148
-0.28169304 0.80007291 0.19836827
-0.27560082 0.80183792 0.19805227
-0.2643542 0.80444437 0.1969571
-0.25553143 0.80489051 0.19504201
-0.24397287 0.80708414 0.19403416
-0.23362246 0.80624425 0.19083446
-0.22543688 0.80913234 0.19121397
0.21960279 0.80941892 0.19003294
0.23698813 0.80702281 0.1922888
0.24549998 0.80580425 0.19335614
0.25613645 0.80284518 0.19351323
0.2628594 0.80530286 0.19722855
0.27386016 0.80224293 0.19788206
0.81853652 0.80859673 0.19901264
0.82668877 0.80477011 0.19621107
0.8344546 0.80249661 0.19273567
-0.82430905 0.81325197 0.19269755
-0.81562746 0.81591702 0.19644472
-0.25302079 0.81031942 0.19887997
-0.24109747 0.81486869 0.19971319
-0.23386613 0.81338346 0.19674179
-0.22478038 0.81323332 0.194414
-0.21533251 0.81631076 0.19479932
-0.20608777 0.81646043 0.19306974
-0.19512878 0.81843829 0.19252722
-0.18918706 0.8190918 0.19188517
0.18721779 0.81742936 0.19011155
0.19631809 0.81743926 0.19193467
0.20423718 0.81486982 0.19137938
0.21447815 0.81588727 0.1942693
0.22624856 0.81397229 0.19537552
0.2328663 0.81375253 0.19680141
0.24435923 0.81333578 0.19924898
0.25361592 0.81033784 0.1990394
0.81559265 0.81396365 0.19765066
0.82375914 0.81294274 0.19322039
-0.81475419 0.82362992 0.19223514
-0.8051545 0.82479447 0.19715893
-0.20312873 0.82346487 0.19829862
-0.19414069 0.82419246 0.19711058
-0.18591322 0.82294589 0.19443412
-0.17599906 0.82543129 0.19457808
-0.16705114 0.82812101 0.19536412
-0.15228416 0.82660156 0.19178861
-0.13856606 0.82761717 0.19050586
-0.12743646 0.82975626 0.19074593
0.1296258 0.82984424 0.1910646
0.13622765 0.8277331 0.1902391
0.14691487 0.8279255 0.19206464
0.15636596 0.826671 0.19248232
0.16630284 0.82613343 0.19357789
0.17479391 0.82740986 0.19600718
0.18590307 0.82510549 0.19622636
0.19425055 0.82450569 0.19739278
0.20817344 0.82210457 0.19817464
0.21565226 0.82053316 0.19836074
0.22029389 0.82121742 0.19986555
0.79807854 0.82787311 0.19941235
0.80410856 0.8249439 0.19768132
0.81165862 0.82501525 0.19319707
-0.80404788 0.83482498 0.19159381
-0.79389781 0.83570188 0.19701953
-0.78856927 0.83749992 0.19903888
-0.18057618 0.83013463 0.19934186
-0.17632778 0.83137095 0.19955258
-0.16452065 0.83239341 0.19855922
-0.15372865 0.83343476 0.19775371
-0.1437811 0.83475184 0.19731131
-0.13459861 0.83527488 0.19634251
-0.12428114 0.83603674 0.19571394
-0.11599982 0.83519709 0.19407907
-0.10574794 0.83574533 0.19340017
-0.094450012 0.83598316 0.19234154
-0.084720612 0.8388049 0.19379975
-0.073501907 0.83795112 0.1923207
-0.068082236 0.83678955 0.19096811
-0.047408242 0.83931911 0.19173679
